-1377822.336322549,-4803524.336157784,3953594.213749868
-1377821.315872907,-4803517.595905016,3953589.1384459855
-1377820.1052848606,-4803517.5526307,3953589.5776346684
-1377819.4508979537,-4803521.068191189,3953592.7040638602
-1377818.2709238546,-4803520.961149472,3953593.0812044884
-1377817.065675518,-4803520.8512424445,3953593.470551774
-1377815.8593318355,-4803520.7090994,3953593.8349782173
-1377814.7056674731,-4803520.921112752,3953594.492096755
-1377813.492785505,-4803520.642507369,3953594.750609791
-1377812.235498481,-4803520.322756464,3953594.977844922
-1377811.027535898,-4803520.146549705,3953595.33578717
-1377809.8386910893,-4803520.036993292,3953595.7190306047
-1377808.624816968,-4803519.897008657,3953596.0834565414
-1377807.4324754158,-4803519.775259936,3953596.466572981
-1377806.213226989,-4803519.644953774,3953596.837228947
-1377805.0187290283,-4803519.515685582,3953597.2141150264
-1377804.7191077664,-4803517.703847321,3953595.860893772
-1377803.4266553929,-4803517.03415555,3953595.832436183
-1377802.2507859059,-4803517.026663185,3953596.296671508
-1377801.0568943517,-4803516.984755568,3953596.760526229
-1377799.8683641558,-4803516.961539003,3953597.19996748
-1377798.6728401093,-4803516.913938702,3953597.6391549665
-1377797.8804746217,-4803519.124404873,3953599.7560425573
-1377797.4705331025,-4803516.7574393265,3953598.003453111
-1377796.6733847198,-4803519.093315982,3953600.195356974
-1377796.287200925,-4803516.866010604,3953598.5549109518
-1377795.0666137543,-4803516.731028925,3953598.931669351
-1377795.8696828673,-4803516.319724933,3953599.1821602685
-1377797.0558110862,-4803516.362986503,3953598.7675132677
-1377798.252709321,-4803516.472212566,3953598.3658340215
-1377799.4765146354,-4803516.589995502,3953597.9766151016
-1377800.6579692743,-4803516.50329419,3953597.4315142296
-1377801.846499428,-4803516.526510566,3953596.992073015
-1377803.0204912007,-4803516.5558738345,3953596.534194838
-1377804.2189884582,-4803516.613837931,3953596.11357094
-1377805.8055854433,-4803518.934189127,3953597.3706459985
-1377807.0022400126,-4803519.070975992,3953596.99999017
-1377808.191084402,-4803519.180533098,3953596.6167470273
-1377809.414108982,-4803519.352420133,3953596.2588051013
-1377810.6061715165,-4803519.44477869,3953595.8631014056
-1377811.858049388,-4803519.717256517,3953595.5984853827
-1377813.0887083334,-4803520.057840061,3953595.371377239
-1377814.3258375146,-4803520.420979947,3953595.162959551
-1377815.49248929,-4803520.282662088,3953594.6050168425
-1377816.6564129093,-4803520.10641612,3953593.997486224
-1377817.877002652,-4803520.24139248,3953593.6207262813
-1377819.0723181749,-4803520.373503526,3953593.256172989
-1377819.7421496406,-4803517.053870443,3953590.2731645755
-1377820.9395526373,-4803517.079594511,3953589.8276189845
-1377823.4911749598,-4803526.089018291,3953596.1285896203
-1377823.1096460614,-4803523.593813052,3953594.264114957
-1377824.938114206,-4803527.8087729905,3953596.9550156565
-1377825.9495387024,-4803526.731444912,3953595.673989925
-1377825.7164757517,-4803525.151671497,3953594.483136711
-1377824.5444442509,-4803517.25781142,3953588.541203784
-1377827.2612998341,-4803527.724175188,3953595.963985498
-1377827.1832425348,-4803527.196295594,3953595.5526664564
-1377825.7182271539,-4803517.371684383,3953588.1579597895
-1377828.4625506522,-4803527.905384694,3953595.6183751863
-1377828.276465777,-4803526.631475247,3953594.6520625385
-1377827.7946830483,-4803523.36051673,3953592.2015710087
-1377826.9039963833,-4803517.300013904,3953587.62531809
-1377829.6348239982,-4803527.729821605,3953595.0231770193
-1377829.0579399061,-4803523.786316797,3953592.0368899885
-1377828.1337027135,-4803517.409937069,3953587.2114302907
-1377830.4044533095,-4803524.871785209,3953592.3955442333
-1377829.3373316152,-4803517.485778496,3953586.815598896
-1377831.6411304974,-4803525.34699957,3953592.29278429
-1377832.8009526725,-4803525.071196375,3953591.5981569127
-1377831.7348886589,-4803517.660472233,3953585.999522402
-1377832.1613825373,-4803517.385544885,3953586.231830996
-1377832.0500923393,-4803524.98253126,3953592.4626645595
-1377830.9386355262,-4803517.243053564,3953586.6023613377
-1377830.8164569908,-4803524.631587139,3953592.671210767
-1377829.7442049165,-4803517.227696986,3953587.0664711674
-1377829.515302848,-4803523.8179204315,3953592.5306129055
-1377829.357323104,-4803522.755661658,3953591.7325152494
-1377828.5408339826,-4803517.095922322,3953587.449461717
-1377828.8466725894,-4803527.340650125,3953595.669374737
-1377828.7035321314,-4803526.386956802,3953594.9277291023
-1377828.356997393,-4803523.956927515,3953593.1008899854
-1377827.335340886,-4803517.013581069,3953587.869833297
-1377827.6231460539,-4803526.826032679,3953595.7348802336
-1377826.1858742982,-4803517.098148076,3953588.390395052
-1377826.515887068,-4803527.313503779,3953596.57318232
-1377826.371943897,-4803526.328594022,3953595.83738628
-1377825.988746596,-4803523.770744052,3953593.9046335425
-1377824.981721713,-4803517.02047904,3953588.8046631333
-1377825.3446407437,-4803527.407396574,3953597.106078458
-1377824.0389291362,-4803526.606253477,3953596.984043968
-1377822.3783727435,-4803523.431348088,3953595.066446772
-1377821.3687405947,-4803516.785643301,3953590.0659038476
-1377820.1802091857,-4803516.76243194,3953590.505346044
-1377819.481000904,-4803519.979646763,3953593.413465473
-1377818.970158578,-4803516.692613672,3953590.9442808684
-1377818.271160178,-4803519.825312623,3953593.777765069
-1377817.0527271624,-4803519.697855244,3953594.1607551556
-1377815.8723665741,-4803519.816796344,3953594.730777758
-1377814.7499437789,-4803520.137727476,3953595.4382450623
-1377813.5418992802,-4803519.875986665,3953595.6907813856
-1377812.2945584217,-4803519.505661146,3953595.911405634
-1377811.04346267,-4803519.179076929,3953596.1447438104
-1377809.8133623363,-4803518.897272257,3953596.3970261263
-1377808.6258581998,-4803518.792388393,3953596.774165946
-1377807.396935254,-4803518.628353441,3953597.156774842
-1377806.1984031547,-4803518.51343747,3953597.533787659
-1377805.8574916269,-4803516.472398681,3953596.005993815
-1377805.0020619808,-4803518.462992585,3953597.960641989
-1377804.6476528514,-4803516.318061306,3953596.370292271
-1377803.4346304482,-4803516.237874081,3953596.7906624386
-1377802.2566044629,-4803516.222862815,3953597.248667431
-1377801.078578551,-4803516.207851245,3953597.706672364
-1377799.9395088225,-4803516.555989052,3953598.4512665207
-1377798.7603876009,-4803516.508741178,3953598.884350555
-1377797.4852919888,-4803516.070056499,3953599.0365679534
-1377796.2848836177,-4803515.97700895,3953599.419937044
-1377795.919852467,-4803515.414794369,3953600.0963934576
-1377797.1309965379,-4803515.516854324,3953599.6823808993
-1377798.396975504,-4803515.980589246,3953599.5672911764
-1377799.612188246,-4803516.125249182,3953599.196762988
-1377800.7508021349,-4803515.88918969,3953598.5578286024
-1377801.916064725,-4803515.717620309,3953597.9441955686
-1377803.1169633185,-4803515.755540743,3953597.498777927
-1377804.3157053404,-4803515.785941992,3953597.0471300194
-1377805.5250541626,-4803515.995405154,3953596.7448799857
-1377806.7813124226,-4803516.396826841,3953596.579947918
-1377808.2244204609,-4803518.046420486,3953597.331869552
-1377807.8702548165,-4803515.873926375,3953595.710495968
-1377809.4286404806,-4803518.237999053,3953597.0048251254
-1377810.6716806341,-4803518.564917036,3953596.789924145
-1377811.9292462252,-4803518.914057944,3953596.575276716
-1377813.186567169,-4803519.290761425,3953596.391653303
-1377814.4236619761,-4803519.596948728,3953596.139624454
-1377815.5768363327,-4803519.440061297,3953595.544554348
-1377816.7043886618,-4803519.137013762,3953594.861881025
-1377817.8785925228,-4803519.081858066,3953594.3293664535
-1377819.2304081218,-4803520.043744334,3953594.5945699927
-1377819.0999985049,-4803519.219680139,3953593.964940177
-1377819.8106646345,-4803516.241326734,3953591.262163017
-1377822.3518281337,-4803525.271126526,3953597.606367367
-1377822.163587929,-4803523.989698683,3953596.633823665
-1377823.7511825662,-4803526.597655693,3953598.1212846516
-1377823.4614539922,-4803524.706659951,3953596.699660212
-1377823.2751252884,-4803523.460313835,3953595.764370943
-1377823.176283446,-4803522.803139144,3953595.2594719827
-1377824.9806802631,-4803526.7920959685,3953597.7820317606
-1377826.1670575805,-4803526.807787991,3953597.336358346
-1377825.7633205135,-4803524.093080082,3953595.2790014874
-1377825.2397111466,-4803520.619465216,3953592.6541901953
-1377824.6110467415,-4803516.410185978,3953589.4929484916
-1377827.323275679,-4803526.77516806,3953596.8470735634
-1377825.8198605208,-4803516.646187696,3953589.190950728
-1377828.3394681904,-4803525.600798858,3953595.4728486664
-1377828.189088841,-4803524.650285132,3953594.7619733876
-1377829.253402433,-4803523.842597482,3953593.6990043796
-1377828.1898480207,-4803516.582689122,3953588.206406284
-1377830.5131625657,-4803524.256205545,3953593.5341965454
-1377829.3972185815,-4803516.643159358,3953587.779677743
-1377831.648234101,-4803523.979364569,3953592.8333391217
-1377830.6016506297,-4803516.750216953,3953587.3779966845
-1377833.0077228274,-4803525.166898187,3953593.2729856805
-1377831.8109333264,-4803516.845768349,3953586.988522289
-1377832.7660841136,-4803525.006467094,3953593.855216139
-1377831.4482130758,-4803524.106106195,3953593.6645232053
-1377830.330076555,-4803516.428588771,3953587.8601628873
-1377830.3018208642,-4803524.371896345,3953594.334483318
-1377829.1226715422,-4803516.311166182,3953588.2432801276
-1377829.2139384574,-4803524.87008545,3953595.185245632
-1377827.941112565,-4803516.227017183,3953588.657548221
-1377828.249317578,-4803526.394746344,3953596.8090584036
-1377828.02406436,-4803524.842202612,3953595.6307922015
-1377827.1649315655,-4803526.905126469,3953597.659947676
-1377825.9761183113,-4803526.852526097,3953598.0868037473
-1377824.9996368992,-4803520.350820834,3953593.1738644033
-1377824.3704011329,-4803516.111132951,3953589.969264613
-1377824.789496144,-4803526.864396868,3953598.563501263
-1377823.4837847543,-4803526.06325371,3953598.4414664335
-1377823.2356258193,-4803524.430848642,3953597.2070011348
-1377822.1337760913,-4803524.965591995,3953598.0826841467
-1377819.5479628518,-4803515.922210449,3953591.738225213
-1377818.7745556622,-4803518.738661255,3953594.353145767
-1377817.5628377062,-4803518.606197759,3953594.7238021395
-1377816.4457554754,-4803518.860497654,3953595.3814278343
-1377815.3190195414,-4803519.16639112,3953596.076434684
-1377814.1595858638,-4803519.216206439,3953596.5781786516
-1377812.9117078169,-4803518.872424718,3953596.7990564187
-1377811.6794164365,-4803518.526149096,3953597.001497148
-1377810.431538844,-4803518.182366802,3953597.2223746674
-1377809.2022209156,-4803517.846455518,3953597.4433789034
-1377807.6363383909,-4803515.541495657,3953596.1926608286
-1377806.5334290317,-4803516.100952105,3953597.0870335633
-1377805.3459257383,-4803515.996067539,3953597.4641728792
-1377804.06404607,-4803515.448485778,3953597.5415013744
-1377802.8696174407,-4803515.433122196,3953598.005609614
-1377801.677835396,-4803515.370151492,3953598.4138996806
-1377800.5177366294,-4803515.616557045,3953599.095938041
-1377799.3661829017,-4803515.807503215,3953599.697491167
-1377798.4617260518,-4803517.229339357,3953601.2158991625
-1377798.1794283774,-4803515.591557919,3953599.999740743
-1377797.1472185943,-4803516.539583062,3953601.187186781
-1377796.9153612056,-4803515.162904666,3953600.1520847203
-1377798.0651414904,-4803517.011788237,3953602.129357335
-1377797.7121437574,-4803514.985435663,3953600.620125293
-1377799.2147497162,-4803516.728808383,3953601.4469383643
-1377798.9734147845,-4803515.262256035,3953600.3309705653
-1377800.1846064809,-4803515.392897311,3953599.9787525344
-1377801.2665891666,-4803514.902567803,3953599.1526583936
-1377802.4763590957,-4803514.943001074,3953598.7011375804
-1377803.670542687,-4803514.985927616,3953598.2680535987
-1377804.8628146176,-4803514.993772136,3953597.7977151945
-1377806.0596790214,-4803515.04604374,3953597.352424383
-1377807.2277722224,-4803515.083258258,3953596.9192133546
-1377808.771529658,-4803517.254249981,3953598.0824553906
-1377808.4427406464,-4803515.25547876,3953596.579708946
-1377810.0344693065,-4803517.593712232,3953597.8615781562
-1377811.2659439608,-4803517.937142183,3953597.6468041544
-1377812.4907039518,-4803518.285578098,3953597.4443635843
-1377813.7146478258,-4803518.631167705,3953597.2295893366
-1377814.933651834,-4803518.789034888,3953596.8899573875
-1377816.0684429144,-4803518.482808166,3953596.1765136644
-1377817.2204530349,-4803518.17977955,3953595.4693001322
-1377818.3884104542,-4803517.9891812755,3953594.861642857
-1377819.965253561,-4803520.616496219,3953596.3615662665
-1377819.5918150903,-4803518.177911292,3953594.522264335
-1377819.1700575952,-4803515.428789749,3953592.4645250915
-1377821.7658372063,-4803524.506918791,3953598.827802871
-1377820.3873943589,-4803515.524010659,3953592.056614623
-1377823.0197321891,-4803524.9853336755,3953598.7312742057
-1377824.3062779831,-4803525.691244106,3953598.7662134687
-1377824.0999807506,-4803524.31844889,3953597.749677926
-1377825.5394230688,-4803526.097315769,3953598.6197161577
-1377825.0220054472,-4803522.616868252,3953596.001007475
-1377826.8346781563,-4803526.918835862,3953598.784981779
-1377825.1563108342,-4803515.696837515,3953590.293503872
-1377827.9594354348,-4803526.463953009,3953597.9654970416
-1377827.5873345034,-4803524.030040152,3953596.120093232
-1377827.3326351915,-4803522.261173309,3953594.7797150603
-1377827.1216966398,-4803520.815368493,3953593.676337651
-1377828.8827657797,-4803524.710091539,3953596.1671120403
-1377829.9637957632,-4803523.989098541,3953595.154238053
-1377828.76438592,-4803515.8009007545,3953588.9510171195
-1377831.2573843899,-4803524.747972763,3953595.2512249197
-1377832.3873739077,-4803524.481830107,3953594.587368136
-1377831.1614182284,-4803515.973768067,3953588.1533782277
-1377833.5545168098,-4803524.288382172,3953593.9673762424
-1377833.4394467939,-4803523.489386926,3953593.350334345
-1377833.5848138428,-4803524.195092294,3953594.55100147
-1377832.4097916898,-4803524.247405557,3953595.0711835613
-1377831.1765150616,-4803515.656988819,3953588.5625575385
-1377831.2712442286,-4803524.5973778665,3953595.797342189
-1377830.0621833906,-4803524.388939709,3953596.1303649675
-1377828.747704023,-4803515.401747362,3953589.310101164
-1377828.8859839109,-4803524.323481611,3953596.5202202103
-1377828.5710860565,-4803522.174247883,3953594.9053333444
-1377827.558369238,-4803515.347321378,3953589.7553931964
-1377827.8719484953,-4803525.505369545,3953597.9006754044
-1377827.672644343,-4803524.156957701,3953596.8843937516
-1377827.3879618407,-4803522.198311293,3953595.382157344
-1377826.858612665,-4803526.547615891,3953599.1444470105
-1377826.2191313265,-4803522.243790006,3953595.9084423548
-1377826.0068871423,-4803520.8502650615,3953594.854779393
-1377825.7476641494,-4803519.150876203,3953593.5765759386
-1377825.4419694608,-4803525.103984023,3953598.536076877
-1377825.2102469679,-4803523.52888407,3953597.3391194525
-1377825.0501115234,-4803522.459106877,3953596.534790816
-1377824.79817548,-4803520.78512067,3953595.2876113662
-1377824.291229292,-4803525.297782049,3953599.149965172
-1377824.1526953557,-4803524.360146141,3953598.4515497033
-1377823.0574919279,-4803524.7759782,3953599.227676511
-1377821.746582977,-4803523.84304595,3953598.9936244385
-1377821.6256163002,-4803523.051903342,3953598.4012488746
-1377821.4309403957,-4803521.804871772,3953597.453625509
-1377820.1438586498,-4803521.125504636,3953597.4189391723
-1377818.415283974,-4803517.571374227,3953595.196059422
-1377817.2454966023,-4803517.812425382,3953595.8718682895
-1377816.115543021,-4803518.135516956,3953596.57933546
-1377814.970247775,-4803518.433538967,3953597.2742154025
-1377813.7682180777,-4803518.306433096,3953597.6511016255
-1377812.5542070305,-4803517.938639314,3953597.8410818432
-1377811.3208546476,-4803517.617080455,3953598.0622129254
-1377810.075133937,-4803517.280816972,3953598.289320402
-1377808.8288420122,-4803516.914144318,3953598.4730700483
-1377808.5032708547,-4803514.89817528,3953596.957863042
-1377807.3158834823,-4803514.935778303,3953597.4840196967
-1377806.059448882,-4803514.675824654,3953597.7671984495
-1377804.883824615,-4803514.640770033,3953598.2004093537
-1377803.7025809488,-4803514.642957018,3953598.670874554
-1377802.5288344265,-4803514.586031015,3953599.0977282757
-1377801.3357122547,-4803514.518387367,3953599.5121215205
-1377800.2133588062,-4803514.95321965,3953600.306810903
-1377799.0275229868,-4803514.910978015,3953600.7522282195
-1377797.7885192495,-4803514.569705413,3953600.9670009813
-1377798.5341476377,-4803514.299144668,3953601.3724857518
-1377799.7518772676,-4803514.566247601,3953601.126181416
-1377800.8831021923,-4803514.133928154,3953600.325388717
-1377802.0745233258,-4803514.081974928,3953599.799105612
-1377803.250963637,-4803514.119876308,3953599.3782284874
-1377804.424710116,-4803514.176802141,3953598.951374811
-1377805.6169819306,-4803514.184646495,3953598.4810365047
-1377806.827568338,-4803514.227924682,3953598.041849148
-1377808.1024200672,-4803514.694169764,3953597.9206556715
-1377809.5860836015,-4803516.655651896,3953598.94022292
-1377810.822932578,-4803516.98940285,3953598.7192189675
-1377812.080497886,-4803517.338543678,3953598.5045719356
-1377813.3326888736,-4803517.6973632965,3953598.2961549745
-1377814.5541969556,-4803518.006044155,3953598.062563418
-1377815.6928114977,-4803517.769981082,3953597.4236284588
-1377816.8310993628,-4803517.47594593,3953596.710311642
-1377818.3800256192,-4803519.721772031,3953597.9419572027
-1377817.98258527,-4803517.17109037,3953596.0215350967
-1377819.6409132031,-4803520.224570809,3953597.8456830485
-1377820.9842055782,-4803521.327238813,3953598.216800086
-1377822.2894602492,-4803522.24046041,3953598.444495594
-1377823.838668708,-4803524.515675611,3953599.688726753
-1377823.5959184365,-4803522.930544404,3953598.491642122
-1377824.8578343,-4803523.351672753,3953598.33306532
-1377824.473576284,-4803520.818540839,3953596.419001504
-1377823.5667696085,-4803514.787078829,3953591.8614339093
-1377826.4114261833,-4803525.75583044,3953599.6769788554
-1377827.6043421552,-4803525.9079839485,3953599.3372188224
-1377828.6778757812,-4803525.246104401,3953598.3679559673
-1377829.8610351635,-4803525.278993511,3953597.934743011
-1377829.6479395982,-4803523.825669872,3953596.825135382
-1377828.352381478,-4803514.961274119,3953590.1229901463
-1377831.1359956998,-4803525.916091451,3953597.9443805665
-1377832.1506022566,-4803524.764611657,3953596.6072830586
-1377833.1938037574,-4803523.769656218,3953595.3763524783
-1377833.5090362085,-4803523.504665335,3953595.7314896714
-1377832.6391910075,-4803525.643900996,3953597.816716836
-1377832.4736108351,-4803524.469897646,3953596.931396149
-1377832.2407905469,-4803522.86256189,3953595.709518502
-1377831.5046773409,-4803525.979521175,3953598.5427487823
-1377830.2472494524,-4803525.431963978,3953598.5955398898
-1377829.0259484537,-4803525.038770987,3953598.754497688
-1377827.9081649114,-4803517.50455114,3953593.049942605
-1377827.9446044806,-4803525.67342111,3953599.71117336
-1377827.75204963,-4803524.376955763,3953598.7261692006
-1377827.1054909735,-4803519.963212469,3953595.3845043457
-1377826.638110612,-4803524.926385385,3953599.620416087
-1377825.4217637347,-4803524.692543315,3953599.9224143354
-1377823.9328941156,-4803522.599274798,3953598.7908340776
-1377823.6715154569,-4803520.892367379,3953597.5063998015
-1377822.6831899488,-4803514.377787565,3953592.5809962535
-1377822.642559566,-4803521.880153625,3953598.7249968904
-1377821.3368494902,-4803521.079010435,3953598.6029609283
-1377820.2835131993,-4803514.252522759,3953593.434451771
-1377820.0646408815,-4803520.565161291,3953598.6683379174
-1377818.8221706229,-4803520.268654314,3953598.9265971524
-1377818.7025445593,-4803519.482184773,3953598.3281178814
-1377818.2735016285,-4803516.707661182,3953596.2393534947
-1377817.1126202783,-4803517.008177371,3953596.95267028
-1377816.0057845213,-4803517.326614979,3953597.6417004666
-1377814.8790488925,-4803517.632508157,3953598.336707172
-1377813.6473974427,-4803517.430546953,3953598.669728158
-1377812.4040780182,-4803517.074240046,3953598.8720417046
-1377811.1664124844,-4803516.737643436,3953599.0807121713
-1377809.9446259553,-4803516.3995721545,3953599.3017160725
-1377808.6999668875,-4803516.038591559,3953599.5101325987
-1377808.4661945738,-4803514.626831462,3953598.4377768585
-1377807.1575499817,-4803513.872273115,3953598.3407863607
-1377805.9456233012,-4803513.824322165,3953598.7860770207
-1377804.7423233404,-4803513.806446373,3953599.2562884246
-1377803.5446429371,-4803513.751328365,3953599.689245397
-1377802.3415880618,-4803513.705889115,3953600.1284325076
-1377801.1441869002,-4803513.680160132,3953600.573976619
-1377800.032548648,-4803514.038681672,3953601.3125940915
-1377800.5109224773,-4803513.404709535,3953601.510832803
-1377801.6560057676,-4803513.191206591,3953600.890589285
-1377802.8370382537,-4803513.273535479,3953600.494760012
-1377804.0411543243,-4803513.294257811,3953600.036882341
-1377805.2398959137,-4803513.324658898,3953599.5852348087
-1377806.441073334,-4803513.391968185,3953599.1524046795
-1377807.6352568767,-4803513.434893753,3953598.719320768
-1377809.190110895,-4803515.7298212545,3953599.9699135497
-1377810.4307489863,-4803516.076783204,3953599.779807145
-1377811.679442518,-4803516.423411472,3953599.571263712
-1377812.9305378234,-4803516.74999547,3953599.3379262006
-1377814.1824496908,-4803517.0794252055,3953599.1169221215
-1377815.35506785,-4803517.047160344,3953598.6215355126
-1377816.4804630163,-4803516.736594238,3953597.9326322037
-1377817.6195669998,-4803516.445404975,3953597.231649015
-1377819.3602303534,-4803519.984849336,3953599.4359666198
-1377820.53582246,-4803519.962948237,3953598.959143279
-1377821.845600694,-4803520.806692114,3953599.1246640896
-1377823.1627687116,-4803521.846696024,3953599.4520428944
-1377822.8867831454,-4803520.032030986,3953598.0619486705
-1377824.621586167,-4803523.636279785,3953600.334542756
-1377826.049012289,-4803525.117505852,3953600.9740646924
-1377827.1638021115,-4803524.627875099,3953600.1357626747
-1377828.3188899588,-4803524.506066762,3953599.5779460985
-1377829.5023283598,-4803524.568345685,3953599.1573204896
-1377828.714260165,-4803519.206601887,3953595.0986765083
-1377830.8096734863,-4803525.37517928,3953599.3040225077
-1377829.164067889,-4803514.09693539,3953590.756725379
-1377832.0233403787,-4803525.599674391,3953599.0142306597
-1377831.919054241,-4803524.8382737655,3953598.4283392797
-1377831.7975145055,-4803524.016722189,3953597.792606384
-1377832.7588816374,-4803522.452306321,3953596.1376424804
-1377831.949700232,-4803520.995247894,3953596.041432228
-1377831.3183632628,-4803524.818481335,3953599.398506214
-1377829.7183949458,-4803513.841429155,3953591.0818523685
-1377830.2143226299,-4803525.288754929,3953600.2243479285
-1377828.5002070153,-4803513.686412028,3953591.4338181233
-1377828.8990641397,-4803524.283834077,3953599.9342245148
-1377827.5959986364,-4803523.435085316,3953599.7563711274
-1377827.3545874709,-4803521.85462715,3953598.5531831123
-1377826.9713891938,-4803519.296778816,3953596.620428454
-1377826.601080949,-4803524.68362297,3953601.1621278925
-1377825.3661746124,-4803524.441909598,3953601.4639991764
-1377825.1855336314,-4803523.27222718,3953600.578677582
-1377823.9008867492,-4803522.629769385,3953600.56280874
-1377823.7650677687,-4803521.7584320335,3953599.8957974706
-1377822.3669171159,-4803520.208766367,3953599.200329781
-1377822.1039403905,-4803518.5531198215,3953597.934839183
-1377821.3219611533,-4803513.439917966,3953594.0877646487
-1377821.0409466096,-4803519.2801549,3953598.9662767155
-1377819.6853202612,-4803518.2197354,3953598.6447469904
-1377819.2902806196,-4803515.649010266,3953596.6995304246
-1377818.1417337738,-4803515.907278466,3953597.3632592415
-1377816.998595698,-4803516.212819769,3953598.0643692357
-1377815.869703642,-4803516.5111942785,3953598.753145671
-1377814.7297832784,-4803516.799536971,3953599.4417952592
-1377813.506969315,-4803516.543135848,3953599.7251012954
-1377812.2604321914,-4803516.204026883,3953599.939875013
-1377811.0251683935,-4803515.847386286,3953600.123751302
-1377809.7966671623,-4803515.51432123,3953600.3570885304
-1377808.5479740496,-4803515.167692539,3953600.565631679
-1377808.2070271706,-4803513.069702458,3953598.9942250955
-1377807.000999126,-4803513.013899492,3953599.414848563
-1377805.8011620636,-4803512.951263178,3953599.8415753082
-1377804.6059174954,-4803512.933053932,3953600.2933496633
-1377803.4176460716,-4803512.853904896,3953600.7199494075
-1377802.2323344587,-4803512.81349088,3953601.146929673
-1377801.0782773162,-4803512.853623914,3953601.6424421524
-1377802.5892894866,-4803512.324544583,3953601.549242774
-1377803.7866904675,-4803512.350273231,3953601.1036988185
-1377804.9483130255,-4803512.364931791,3953600.6517977314
-1377806.167559845,-4803512.4952381365,3953600.281142975
-1377807.360926856,-4803512.53531777,3953599.835725682
-1377808.5669548318,-4803512.591120653,3953599.4151022797
-1377810.1805973721,-4803515.14783634,3953600.8590854867
-1377809.773262011,-4803512.676312872,3953599.0070660715
-1377811.4128879253,-4803515.49411222,3953600.656645647
-1377812.6586084687,-4803515.83037534,3953600.4295385745
-1377813.8962740197,-4803516.166971573,3953600.2208682885
-1377815.1079569461,-4803516.242483594,3953599.8066012794
-1377816.247598053,-4803515.924751177,3953599.105364489
-1377817.385361539,-4803515.628889227,3953598.410484739
-1377818.5352143643,-4803515.31834161,3953597.697041233
-1377820.0731815996,-4803517.668040205,3953599.0157836005
-1377819.6662628108,-4803515.027485254,3953597.014495028
-1377819.3384618317,-4803512.890092572,3953595.405835672
-1377821.4599207835,-4803519.007427295,3953599.567703925
-1377820.5194612045,-4803512.915464495,3953594.966394165
-1377821.7087950374,-4803512.969892352,3953594.5211029244
-1377824.1477783227,-4803521.103529517,3953600.216612552
-1377823.8029677894,-4803518.878422561,3953598.5270882165
-1377822.914824089,-4803513.025691518,3953594.100478717
-1377825.4956302329,-4803522.193671299,3953600.569165759
-1377825.2412451564,-4803520.511147643,3953599.284984771
-1377826.991425842,-4803524.197417425,3953601.6137774657
-1377828.06659184,-4803523.541230389,3953600.6691817376
-1377827.5694199628,-4803520.21662319,3953598.1443049125
-1377827.316129453,-4803518.56633519,3953596.88504497
-1377827.0698116508,-4803516.855107653,3953595.600610572
-1377829.2938597174,-4803524.040476372,3953600.5727799353
-1377830.5763167809,-4803524.618461543,3953600.538806715
-1377831.6226676495,-4803523.492403944,3953599.2081927685
-1377831.2918275574,-4803522.935741371,3953599.5772013334
-1377830.2607840588,-4803524.029915443,3953600.876791168
-1377829.016086431,-4803523.611986713,3953601.0415982846
-1377828.7049992832,-4803521.561287921,3953599.483035464
-1377827.955317505,-4803516.532286561,3953595.6676207427
-1377827.407878305,-4803512.805108994,3953592.8434407013
-1377827.8065231529,-4803523.48704406,3953601.418485494
-1377827.6749826034,-4803522.573791924,3953600.720323334
-1377827.269087621,-4803519.851566997,3953598.656734128
-1377826.2145443389,-4803512.821987057,3953593.332470396
-1377826.6970738,-4803523.910043175,3953602.206945919
-1377826.4545675297,-4803522.297349574,3953600.9788366826
-1377825.3213262393,-4803522.523735776,3953601.6115421075
-1377825.0699486695,-4803520.908529662,3953600.3895360725
-1377824.896873056,-4803519.793639796,3953599.5478255786
-1377824.710788564,-4803518.519731675,3953598.581511164
-1377822.651611284,-4803512.676378094,3953594.6131606204
-1377821.457147731,-4803512.604066697,3953595.0336579084
-1377820.2686171466,-4803512.580855224,3953595.473099405
-1377819.4388630604,-4803514.7461936325,3953597.577145362
-1377818.2922282359,-4803515.039543521,3953598.278128443
-1377817.1372457715,-4803515.332207269,3953598.9667779636
-1377815.9798616972,-4803515.644914662,3953599.680221434
-1377814.8552830832,-4803515.958326537,3953600.3814581945
-1377813.6378780652,-4803515.749198869,3953600.702145258
-1377812.4031856307,-4803515.42296748,3953600.9293791885
-1377811.1623025236,-4803515.103568856,3953601.150509647
-1377810.7265824557,-4803512.391005599,3953599.117687452
-1377809.5140501508,-4803512.255694179,3953599.4760088795
-1377808.3109951757,-4803512.2102564275,3953599.915196026
-1377807.1100969515,-4803512.172337231,3953600.36061331
-1377805.9387522398,-4803512.095368063,3953600.762672811
-1377804.7214172683,-4803512.000143348,3953601.1705818544
-1377803.507613548,-4803511.974062488,3953601.6222291393
-1377803.6847493385,-4803511.426536749,3953602.1895860867
-1377804.8789323084,-4803511.469463068,3953601.7565026428
-1377806.0666795743,-4803511.546784947,3953601.348339963
-1377807.2729863606,-4803511.631977825,3953600.9403040726
-1377808.4561414046,-4803511.664871728,3953600.507093562
-1377809.6503247377,-4803511.707796827,3953600.0740098483
-1377810.8614349107,-4803511.752900849,3953599.6163858296
-1377812.0639659704,-4803511.796511145,3953599.1956355325
-1377813.8002774073,-4803515.263964673,3953601.343885182
-1377813.2563062923,-4803511.918258587,3953598.8125200975
-1377814.9869649492,-4803515.366001359,3953600.954412302
-1377814.446176651,-4803511.946144724,3953598.366975707
-1377816.1451653263,-4803515.05614034,3953600.253302437
-1377817.2926165287,-4803514.765637155,3953599.56465297
-1377818.423664882,-4803514.474781239,3953598.882106851
-1377819.5562983323,-4803514.161034991,3953598.162433222
-1377819.2112439126,-4803511.9634917565,3953596.503931776
-1377820.4194292717,-4803512.026810458,3953596.0895380694
-1377821.6270432025,-4803512.059719958,3953595.6317865984
-1377822.8352287533,-4803512.123038038,3953595.2173927543
-1377824.031848998,-4803512.202867962,3953594.8031256814
-1377826.6786251965,-4803521.913410598,3953601.7016975395
-1377825.2379124528,-4803512.315619084,3953594.4261128707
-1377827.9455980386,-4803522.664747531,3953601.8169959686
-1377826.3852557794,-4803512.280486244,3953593.942932989
-1377827.6014624985,-4803512.286517119,3953593.4664905993
-1377830.2658817454,-4803522.257458124,3953600.558322422
-1377826.3581303458,-4803511.873339776,3953594.3634303943
-1377825.2123125766,-4803512.169537621,3953595.07674696
-1377823.9802657505,-4803511.795702519,3953595.248163212
-1377822.7715561923,-4803511.730557927,3953595.6809939584
-1377821.550464981,-4803511.6790791415,3953596.1016179286
-1377820.3339795803,-4803511.643656998,3953596.5654726815
-1377819.4396758478,-4803513.782868607,3953598.675241792
-1377819.0948662912,-4803511.557762695,3953596.9857159653
-1377818.31322016,-4803514.118152164,3953599.3828355274
-1377817.1719599892,-4803514.401822553,3953600.0775883175
-1377816.0167327852,-4803514.722048728,3953600.797261906
-1377815.5242622213,-4803511.612728743,3953598.4282628973
-1377814.9511483195,-4803515.638964142,3953601.9535570866
-1377814.2802776864,-4803511.45301613,3953598.810870975
-1377813.0718480102,-4803511.417258667,3953599.2562884246
-1377811.8722899633,-4803511.384013515,3953599.69560246
-1377810.675705006,-4803511.361132944,3953600.153480189
-1377809.4532743748,-4803511.30497815,3953600.5802068245
-1377808.2443210504,-4803511.267392611,3953601.044060899
-1377807.035891804,-4803511.231633571,3953601.489478016
-1377805.8099302812,-4803511.106333661,3953601.8724661204
-1377806.2952022634,-4803510.7237466015,3953602.294611552
-1377807.5052507832,-4803510.793568324,3953601.8556784997
-1377808.7034681058,-4803510.822141782,3953601.4224681207
-1377809.9110810424,-4803510.855054377,3953600.964717444
-1377811.118170069,-4803510.88613984,3953600.5254035923
-1377813.0950374329,-4803515.874251174,3953603.820900065
-1377812.3016043347,-4803510.94842243,3953600.1047802926
-1377813.4946923107,-4803510.959110891,3953599.646775698
-1377814.6942503748,-4803510.992355637,3953599.2074616547
-1377815.8876176456,-4803511.032433124,3953598.7620441993
-1377817.1012800508,-4803511.2569311,3953598.4722548737
-1377818.660452005,-4803513.566893426,3953599.7353077927
-1377818.2735492901,-4803511.081370721,3953597.877058732
-1377819.8194682791,-4803513.259877446,3953599.0465315436
-1377819.4865717606,-4803511.16155422,3953597.4566887342
-1377820.6686319725,-4803511.162209347,3953596.9985569133
-1377821.8708712151,-4803511.204797901,3953596.5470357793
-1377823.0658716864,-4803511.2505656,3953596.126285031
-1377824.252279881,-4803511.3232100485,3953595.72422481
-1377825.6870251335,-4803512.886789754,3953596.438384548
-1377825.469650623,-4803511.47538225,3953595.359926232
-1377824.5796404777,-4803510.958423311,3953596.1153467856
-1377823.378707063,-4803510.863555767,3953596.517153259
-1377822.1933945462,-4803510.823146774,3953596.944134154
-1377820.98146746,-4803510.775199649,3953597.3894250346
-1377819.775159822,-4803510.690010275,3953597.797461489
-1377818.5855685459,-4803510.691515128,3953598.2555931946
-1377817.4534599038,-4803511.007087951,3953598.956829602
-1377816.3518237725,-4803511.457314195,3953599.7578761163
-1377815.696877808,-4803514.9140891,3953602.8591364655
-1377815.0046503313,-4803510.5684377635,3953599.579512039
-1377814.6789847976,-4803515.968856356,3953604.1214721287
-1377813.8059086683,-4803510.538039112,3953600.0311595756
-1377813.3999948488,-4803515.346107201,3953604.111958062
-1377813.0328528197,-4803513.071549343,3953602.4095897195
-1377812.6157462872,-4803510.509133564,3953600.4459332624
-1377812.136952482,-4803514.835788328,3953604.202000258
-1377811.4156302093,-4803510.417108988,3953600.860072572
-1377810.247571886,-4803510.436847855,3953601.336894468
-1377809.0313323566,-4803510.3738598805,3953601.769724258
-1377807.8274272422,-4803510.268623475,3953602.152966046
-1377810.1291650573,-4803509.881959044,3953601.98334119
-1377812.0179398123,-4803514.193537793,3953604.761478507
-1377811.329818149,-4803509.9474403495,3953601.5689483224
-1377813.392694323,-4803515.292238597,3953605.126495257
-1377814.7096879913,-4803516.047481275,3953605.235819595
-1377815.6515049958,-4803514.613822172,3953603.6866406943
-1377814.922300697,-4803510.054008477,3953600.244903493
-1377816.8969125042,-4803514.8637421625,3953603.403335129
-1377816.2565339778,-4803510.897771679,3953600.385886557
-1377818.0530590394,-4803514.717219479,3953602.8268293357
-1377817.913709381,-4803513.776738685,3953602.1160787214
-1377817.467691958,-4803510.97145614,3953599.9900570265
-1377819.0995119894,-4803513.762023378,3953601.6270495267
-1377818.5360241143,-4803510.177790744,3953598.908778238
-1377819.7264316303,-4803510.179131952,3953598.4629801717
-1377820.9130841978,-4803510.224214423,3953598.029896156
-1377822.119357461,-4803510.252451018,3953597.5782483234
-1377823.348258823,-4803510.331159118,3953597.170211827
-1377821.5173930884,-4803509.801966249,3953598.2981897783
-1377820.3288630533,-4803509.778754707,3953598.7376308097
-1377819.1129021097,-4803509.745158988,3953599.1830482683
-1377818.5276334775,-4803513.6721745925,3953602.63968394
-1377817.754367714,-4803516.290201031,3953605.092749784
-1377817.1093622309,-4803512.222850834,3953602.006641934
-1377816.376291159,-4803515.037841708,3953604.609359647
-1377815.098641404,-4803514.419765881,3953604.5937420954
-1377814.3181461385,-4803509.539051364,3953600.9150026576
-1377814.1340936492,-4803515.632095443,3953605.968475344
-1377812.833258066,-4803514.904767911,3953605.884071626
-1377816.2245392576,-4803515.759111195,3953606.2953637857
-1377815.9313366702,-4803513.9412497375,3953604.899036384
-1377817.4468294312,-4803516.013685024,3953606.030495129
-1377818.66837203,-4803516.379317505,3953605.840515679
-1377819.32282746,-4803512.977668315,3953602.8013030346
-1377806.1037352695,-4803539.893846866,3953566.9483225835
-1377804.8097759685,-4803539.872504747,3953567.4059514385
-1377803.49807362,-4803539.846137002,3953567.875787038
-1377802.190929628,-4803539.807243703,3953568.327058845
-1377798.1744076498,-4803539.103285146,3953570.567007929
-1377799.4541201678,-4803539.131795598,3953570.1217131126
-1377800.7502356025,-4803539.1606581425,3953569.670314824
-1377802.0388198746,-4803539.191680524,3953569.2189164623
-1377803.3365207587,-4803539.197652173,3953568.7303905976
-1377804.6304798145,-4803539.2189947255,3953568.2727619405
-1377805.915846425,-4803539.267214048,3953567.833823676
-1377807.1979610904,-4803539.275678269,3953567.36373457
-1377808.5091396,-4803539.300218245,3953566.912335856
-1377809.8324077069,-4803539.310072445,3953566.442373356
-1377811.119359932,-4803539.335400138,3953565.9663073746
-1377812.380909219,-4803538.902744827,3953566.0517551196
-1377811.1160134885,-4803538.897480519,3953566.528074573
-1377809.819897402,-4803538.868620848,3953566.9794733487
-1377808.517066502,-4803538.844767106,3953567.443205615
-1377807.215052041,-4803538.823759077,3953567.9192713704
-1377805.945026982,-4803538.800609453,3953568.3707966823
-1377803.3296779164,-4803538.747540712,3953569.292030558
-1377804.6325084437,-4803538.771395911,3953568.8282985794
-1377802.0378757014,-4803538.73371669,3953569.755889221
-1377800.741236303,-4803538.703027736,3953570.225724462
-1377799.454808874,-4803538.679523892,3953570.683352827
-1377798.1750964522,-4803538.651013423,3953571.1286475603
-1377796.8908258523,-4803538.635027776,3953571.5925059444
-1377795.098632536,-4803537.928072831,3953573.0018838164
-1377796.393162123,-4803537.979826775,3953572.5876134112
-1377797.7040472387,-4803538.003350515,3953572.1054449747
-1377799.0109115238,-4803538.012855389,3953571.6415866623
-1377800.3172385609,-4803538.048903564,3953571.1779818004
-1377801.607979217,-4803538.087445006,3953570.7328138244
-1377804.1897057698,-4803538.136963826,3953569.8114536204
-1377802.9019379197,-4803538.108788082,3953570.2751854584
-1377806.75988049,-4803538.174622924,3953568.908403348
-1377805.483140686,-4803538.156479431,3953569.372262079
-1377810.6454998495,-4803538.223275481,3953567.504619929
-1377808.0366203818,-4803538.192766065,3953568.4445445486
-1377811.9373025137,-4803538.2370971255,3953567.0407609236
-1377809.3284228682,-4803538.206588441,3953567.98068568
-1377813.2081442,-4803538.263091216,3953566.6015689713
-1377814.5023827956,-4803538.3138208175,3953566.156527025
-1377815.9059643878,-4803537.864837436,3953566.260665224
-1377814.6152227786,-4803537.82629994,3953566.7058339035
-1377813.334169195,-4803537.793120782,3953567.157232661
-1377812.0334949607,-4803537.776786891,3953567.627195065
-1377810.7373790536,-4803537.747927438,3953568.0785936825
-1377809.4235200975,-4803537.714042384,3953568.542199038
-1377808.1435622887,-4803537.713097629,3953569.0185181363
-1377806.8549779176,-4803537.682076886,3953569.4699165397
-1377805.5486505013,-4803537.646030535,3953569.933521678
-1377804.264379635,-4803537.630046889,3953570.3973802547
-1377800.3865381368,-4803537.551665738,3953571.7701383294
-1377802.990858056,-4803537.594704679,3953570.8487784434
-1377797.799158747,-4803537.482434129,3953572.685141005
-1377801.6901845473,-4803537.578367883,3953571.3187402813
-1377795.2174333378,-4803537.432911724,3953573.6065003197
-1377799.0974303605,-4803537.518816094,3953572.2399732633
-1377796.5148884202,-4803537.466448336,3953573.148999163
-1377795.4087227052,-4803544.607348704,3953580.258578225
-1377794.7906650468,-4803544.839596493,3953582.0862468486
-1377794.4700889583,-4803543.295681951,3953580.7540053832
-1377796.0212661233,-4803544.6400478585,3953581.4356100364
-1377796.278694719,-4803545.878552438,3953582.5002077827
-1377795.707925523,-4803536.755924064,3953574.173482191
-1377797.614760518,-4803546.1319455225,3953582.229484124
-1377796.3361740585,-4803539.85559263,3953576.8441944877
-1377796.988977679,-4803536.789108098,3953573.722084524
-1377798.8054131104,-4803545.707867373,3953581.398172333
-1377798.3219663913,-4803536.861277098,3953573.3019643677
-1377799.6054203638,-4803536.874416339,3953572.8257726706
-1377800.8692422928,-4803543.156109467,3953578.241830846
-1377802.182587865,-4803536.936461522,3953571.922976827
-1377800.8886294644,-4803536.915118208,3953572.380604946
-1377803.4668584457,-4803536.952445768,3953571.4591184803
-1377804.786907761,-4803536.979499497,3953571.0016169823
-1377806.07549184,-4803537.010520832,3953570.5502188117
-1377807.3522314355,-4803537.0286642015,3953570.0863602543
-1377808.649687272,-4803537.062197449,3953569.6288585397
-1377809.930740381,-4803537.095377919,3953569.1774601554
-1377812.5111273036,-4803537.14021936,3953568.262202865
-1377811.2117935827,-4803537.12855804,3953568.7260617013
-1377813.8343951947,-4803537.150072499,3953567.792240554
-1377815.127817248,-4803537.197955882,3953567.3348652236
-1377816.4196199854,-4803537.211776322,3953566.871006178
-1377817.7232674202,-4803537.238473994,3953566.419607367
-1377818.2486269309,-4803536.768300859,3953566.8533296688
-1377816.942298915,-4803536.73225767,3953567.316935236
-1377815.6066623353,-4803536.707701058,3953567.7928742887
-1377814.3277655954,-4803536.682041039,3953568.2505030474
-1377813.052610829,-4803536.641009391,3953568.677234459
-1377811.7669993686,-4803536.620354958,3953569.1471966384
-1377810.449922665,-4803536.603668172,3953569.6232621507
-1377809.15434441,-4803536.548264569,3953570.0744069605
-1377807.8859390712,-4803536.5591779705,3953570.532415633
-1377806.5825848323,-4803536.53349685,3953571.014584334
-1377805.2732846832,-4803536.487085398,3953571.4596255203
-1377802.6880617281,-4803536.425375335,3953572.380858474
-1377803.977169517,-4803536.458224023,3953571.911023554
-1377803.6688560057,-4803541.407726416,3953576.670144068
-1377801.4185614465,-4803536.404051149,3953572.8139461703
-1377801.1318120295,-4803541.428741596,3953577.635369088
-1377800.1205822825,-4803536.368689111,3953573.2898843433
-1377801.3930655299,-4803542.737409948,3953578.7744748816
-1377801.602233007,-4803543.807652566,3953579.6896750955
-1377800.0643543706,-4803542.623326365,3953579.1634448143
-1377799.223738154,-4803544.779273108,3953581.507292036
-1377800.199311221,-4803543.321174687,3953579.767263684
-1377799.4040182896,-4803545.691971118,3953582.285555608
-1377797.9610662789,-4803544.895428718,3953582.0770635675
-1377798.1197118107,-4803545.619032237,3953582.705803249
-1377796.8315821886,-4803545.4759292705,3953583.0515423417
-1377795.0733952273,-4803543.06884004,3953581.4609670606
-1377795.5337648084,-4803545.32746725,3953583.391051178
-1377794.1291770844,-4803544.778342759,3953583.400361031
-1377792.9229704451,-4803542.619058973,3953583.2778598173
-1377793.2565197381,-4803544.265039173,3953584.6910941307
-1377794.2870714224,-4803542.970198538,3953583.0881290277
-1377794.6259957603,-4803544.606499699,3953584.4951330237
-1377794.6746390357,-4803538.637982164,3953578.8888321472
-1377795.5443680626,-4803542.863722989,3953582.524588025
-1377795.7170484455,-4803543.664675599,3953583.2156296065
-1377795.8789795567,-4803544.484986385,3953583.9191315314
-1377797.1101859065,-4803544.372799333,3953583.355463567
-1377797.422188081,-4803539.69188549,3953578.832705567
-1377798.4266306516,-4803544.6430376815,3953583.1033038935
-1377798.253915903,-4803543.785132331,3953582.368651284
-1377797.9005413156,-4803535.5909458725,3953574.820441912
-1377799.6169225387,-4803544.104034723,3953582.1539993333
-1377800.6253824164,-4803542.73217629,3953580.5071698376
-1377800.8002542981,-4803543.597600591,3953581.248052443
-1377801.3316456187,-4803539.965742789,3953577.6464726236
-1377801.5847626096,-4803541.189209407,3953578.6986098066
-1377802.0508704507,-4803543.553082243,3953580.740455825
-1377802.618107641,-4803540.046199289,3953577.2324554957
-1377801.7571750104,-4803535.709064971,3953573.503376433
-1377804.5983724967,-4803543.511689576,3953579.7319996157
-1377804.3423975252,-4803535.770775592,3953572.5821438353
-1377806.0669946931,-4803544.482972645,3953580.0898883627
-1377805.654915386,-4803535.799989313,3953572.1246425086
-1377806.959657168,-4803535.858925858,3953571.69816515
-1377808.2407099034,-4803535.892106835,3953571.2467670743
-1377809.5325119086,-4803535.9059292395,3953570.7829086105
-1377810.8254094166,-4803535.951987106,3953570.3439707104
-1377812.127423497,-4803535.972994232,3953569.8679053015
-1377813.4235391163,-4803536.001853359,3953569.4165069405
-1377814.7164027174,-4803535.990957391,3953568.9339577276
-1377816.0106409374,-4803536.041686647,3953568.4889161317
-1377817.308097163,-4803536.075217517,3953568.0314141517
-1377818.6012401239,-4803536.093710217,3953567.56145179
-1377819.8973562126,-4803536.122567539,3953567.1100530736
-1377819.3555879504,-4803535.768283707,3953567.7572678193
-1377820.646866682,-4803535.780276283,3953567.3118457883
-1377816.7284070426,-4803535.67397427,3953568.684225115
-1377818.0457630707,-4803535.720049064,3953568.220746507
-1377815.4516671211,-4803535.655833428,3953569.1480839006
-1377814.1794855183,-4803535.625167037,3953569.5933788996
-1377812.8962757627,-4803535.584468781,3953570.038547075
-1377810.2785255765,-4803535.551447813,3953570.984574363
-1377811.592384121,-4803535.585332704,3953570.5209693704
-1377807.7075484963,-4803535.48257398,3953571.893473926
-1377808.9810699516,-4803535.517914969,3953571.442075881
-1377806.2303381138,-4803541.187739604,3953577.7824466755
-1377806.4103379925,-4803535.421477432,3953572.3199512567
-1377806.7647603748,-4803543.931859051,3953580.1603406565
-1377806.6319593252,-4803543.24152969,3953579.5627520685
-1377804.7365714507,-4803540.043541098,3953577.256723505
-1377805.1502817462,-4803542.082645762,3953579.0184653215
-1377805.5300567963,-4803544.031857003,3953580.72388221
-1377803.1559471714,-4803538.482853978,3953576.413008203
-1377803.3500187437,-4803539.500464095,3953577.2845973154
-1377804.0476785703,-4803543.012614383,3953580.31627868
-1377801.2328857963,-4803535.302043954,3953574.1439793804
-1377802.080320069,-4803539.535284973,3953577.8105038297
-1377802.5879627739,-4803542.100796303,3953579.9958972167
-1377801.0011140716,-4803540.489988827,3953579.102467088
-1377801.2885263297,-4803541.918273454,3953580.328922315
-1377798.650310494,-4803535.192724542,3953575.0093935407
-1377801.5103886966,-4803543.061192211,3953581.312527877
-1377799.5654829983,-4803539.775802789,3953578.9686098048
-1377799.8393496673,-4803541.071612226,3953580.070715362
-1377800.5310265815,-4803544.506079565,3953583.0216591344
-1377797.360142032,-4803535.184591243,3953575.497918456
-1377797.7900936913,-4803543.6741741495,3953583.289105378
-1377797.9649649854,-4803544.5395983225,3953584.0299882735
-1377796.423019107,-4803543.312670505,3953583.4602726786
-1377795.3664728096,-4803544.374797166,3953584.8394588153
-1377793.9452994317,-4803543.568927259,3953584.6186323618
-1377793.5513300884,-4803541.6554652,3953582.9873420466
-1377794.1878760464,-4803544.727236097,3953585.608595521
-1377792.3032316659,-4803541.822424854,3953583.6191611607
-1377792.7379315272,-4803543.906308966,3953585.399848983
-1377789.7730054823,-4803534.393472882,3953578.822236551
-1377792.7081569536,-4803542.353224832,3953585.181829441
-1377792.9175335644,-4803543.33895124,3953586.0223955037
-1377792.3595321206,-4803534.402910381,3953577.851291077
-1377793.763281474,-4803541.2008912405,3953583.703340938
-1377794.310276235,-4803543.875198326,3953586.0006259107
-1377795.1911353427,-4803541.944802052,3953583.868222971
-1377796.6252485383,-4803542.795784893,3953584.1264305776
-1377796.983617307,-4803544.556708598,3953585.633117424
-1377797.1226262318,-4803538.988501016,3953580.36311833
-1377797.4313589078,-4803540.519537338,3953581.6828998746
-1377797.754126672,-4803542.127922865,3953583.064983136
-1377798.3038000322,-4803538.474548487,3953579.4509417526
-1377798.497836557,-4803539.435205667,3953580.2789202062
-1377798.8032967981,-4803534.617829741,3953575.650249692
-1377799.7176191274,-4803539.14110868,3953579.5535218073
-1377800.3518018213,-4803542.289876377,3953582.243179242
-1377800.5609689998,-4803543.360118592,3953583.158379991
-1377801.0162044144,-4803539.263833004,3953579.1645523794
-1377801.2024311544,-4803540.197260693,3953579.979943562
