-11800374.56,4655546.34,2172.21
-11800379.21,4655544.0600000005,2172.23
-11800372.97,4655547.100000001,2172.22
-11800376.120000001,4655545.57,2172.23
-11800369.8,4655548.66,2172.17
-11800371.41,4655547.86,2172.19
-11800368.21,4655549.44,2172.19
-11800366.66,4655550.19,2172.17
-11800365.08,4655550.96,2172.23
-11800363.51,4655551.73,2172.26
-11800361.93,4655552.49,2172.28
-11800360.370000001,4655553.26,2172.28
-11800358.81,4655554.0200000005,2172.47
-11800358.63,4655554.100000001,2174.99
-11800357.040000001,4655554.9,2175.34
-11800355.4,4655555.68,2176.03
-11800355.73,4655556.95,2176.05
-11800357.32,4655556.17,2175.49
-11800358.9,4655555.41,2175.31
-11800360.52,4655554.61,2175.11
-11800362.33,4655553.73,2172.31
-11800362.14,4655553.84,2174.92
-11800363.88,4655552.97,2172.3
-11800365.44,4655552.21,2172.28
-11800367.03,4655551.44,2172.23
-11800368.59,4655550.68,2172.17
-11800370.17,4655549.92,2172.17
-11800371.74,4655549.14,2172.19
-11800373.34,4655548.38,2172.24
-11800374.92,4655547.61,2172.23
-11800376.49,4655546.850000001,2172.25
-11800378.07,4655546.07,2172.26
-11800379.63,4655545.32,2172.25
-11800381.22,4655544.55,2172.29
-11800382.82,4655543.76,2172.28
-11800384.41,4655543.0,2172.29
-11800385.99,4655542.23,2172.24
-11800387.55,4655541.47,2172.24
-11800389.11,4655540.71,2172.26
-11800390.67,4655539.94,2172.3
-11800392.26,4655539.17,2172.35
-11800393.84,4655538.41,2172.36
-11800395.41,4655537.65,2172.42
-11800397.0,4655536.87,2172.36
-11800396.39,4655537.18,2178.8
-11800398.58,4655536.11,2172.44
-11800398.040000001,4655536.37,2178.04
-11800400.15,4655535.34,2172.59
-11800399.66,4655535.59,2177.65
-11800399.290000001,4655535.78,2181.5
-11800401.700000001,4655534.58,2172.56
-11800400.8,4655535.04,2181.92
-11800403.26,4655533.83,2172.63
-11800400.67,4655535.11,2183.26
-11800402.36,4655534.28,2181.85
-11800402.21,4655534.37,2183.46
-11800401.99,4655534.48,2185.67
-11800403.58,4655533.71,2185.6
-11800405.18,4655532.91,2185.48
-11800408.05,4655531.48,2172.57
-11800407.32,4655531.87,2179.96
-11800407.620000001,4655531.7,2176.96
-11800407.13,4655531.97,2181.86
-11800408.870000001,4655531.100000001,2180.07
-11800408.73,4655532.18,2180.44
-11800409.51,4655531.7700000005,2172.61
-11800408.57,4655532.26,2181.92
-11800407.01,4655533.0200000005,2182.06
-11800406.620000001,4655533.22,2185.92
-11800405.55,4655533.73,2180.75
-11800405.13,4655533.95,2185.01
-11800403.48,4655534.74,2185.83
-11800402.25,4655535.34,2182.4
-11800402.08,4655535.43,2184.07
-11800401.620000001,4655535.62,2172.59
-11800400.96,4655535.97,2179.42
-11800400.75,4655536.08,2181.59
-11800400.59,4655536.15,2183.19
-11800400.09,4655536.38,2172.5
-11800399.57,4655536.64,2177.97
-11800399.24,4655536.8100000005,2181.4
-11800398.52,4655537.14,2172.38
-11800398.120000001,4655537.350000001,2176.76
-11800398.0,4655537.41,2177.96
-11800396.92,4655537.91,2172.4
-11800396.36,4655538.19,2178.4
-11800392.200000001,4655540.21,2172.32
-11800395.32,4655538.7,2172.4
-11800390.63,4655541.0,2172.28
-11800393.76,4655539.45,2172.36
-11800387.46,4655542.54,2172.25
-11800389.06,4655541.74,2172.25
-11800384.33,4655544.07,2172.3
-11800385.88,4655543.3100000005,2172.26
-11800382.77,4655544.83,2172.29
-11800381.18,4655545.600000001,2172.29
-11800379.59,4655546.38,2172.26
-11800378.03,4655547.15,2172.29
-11800376.47,4655547.91,2172.34
-11800376.24,4655548.03,2175.13
-11800374.92,4655548.66,2172.25
-11800373.33,4655549.43,2172.23
-11800371.72,4655550.23,2172.17
-11800370.13,4655551.01,2172.17
-11800368.57,4655551.7700000005,2172.17
-11800367.0,4655552.53,2172.3
-11800365.43,4655553.28,2172.34
-11800365.24,4655553.38,2174.94
-11800362.06,4655554.94,2175.35
-11800363.65,4655554.17,2175.15
-11800360.46,4655555.73,2175.54
-11800358.86,4655556.5,2175.72
-11800357.27,4655557.29,2175.92
-11800357.27,4655558.62,2176.5
-11800358.85,4655557.86,2176.3
-11800360.42,4655557.09,2176.08
-11800362.02,4655556.3,2175.88
-11800365.23,4655554.75,2175.49
-11800363.63,4655555.54,2175.71
-11800366.790000001,4655553.99,2175.3
-11800368.57,4655553.11,2172.22
-11800368.35,4655553.23,2175.08
-11800370.16,4655552.350000001,2172.15
-11800371.74,4655551.58,2172.17
-11800373.31,4655550.82,2172.21
-11800374.89,4655550.04,2172.22
-11800376.24,4655549.4,2175.06
-11800377.78,4655548.65,2175.48
-11800379.33,4655547.9,2175.94
-11800381.200000001,4655546.96,2172.3
-11800380.85,4655547.16,2176.35
-11800382.78,4655546.21,2172.27
-11800384.36,4655545.43,2172.3
-11800385.950000001,4655544.66,2172.31
-11800387.55,4655543.89,2172.26
-11800389.07,4655543.13,2172.24
-11800390.65,4655542.37,2172.26
-11800392.25,4655541.59,2172.3
-11800393.83,4655540.83,2172.36
-11800395.43,4655540.0600000005,2172.38
-11800397.03,4655539.28,2172.4
-11800398.16,4655538.75,2177.03
-11800398.6,4655538.51,2172.36
-11800399.67,4655538.01,2177.58
-11800400.15,4655537.76,2172.48
-11800401.22,4655537.26,2177.63
-11800401.07,4655537.33,2179.17
-11800400.98,4655537.38,2180.11
-11800400.86,4655537.45,2181.32
-11800402.43,4655536.67,2181.42
-11800402.200000001,4655536.79,2183.78
-11800404.870000001,4655535.47,2172.54
-11800404.22,4655535.8100000005,2179.15
-11800403.91,4655535.96,2182.26
-11800403.700000001,4655536.07,2184.53
-11800405.44,4655535.2,2182.61
-11800405.16,4655535.36,2185.32
-11800408.03,4655533.93,2172.57
-11800407.31,4655534.3,2179.69
-11800407.17,4655534.38,2181.17
-11800406.91,4655534.49,2183.65
-11800408.64,4655533.66,2182.11
-11800410.58,4655533.8100000005,2180.99
-11800410.42,4655533.9,2182.61
-11800408.77,4655534.72,2183.51
-11800408.28,4655534.9,2172.59
-11800407.32,4655535.41,2182.3
-11800405.73,4655536.19,2182.32
-11800405.120000001,4655536.46,2172.54
-11800404.5,4655536.79,2178.86
-11800404.27,4655536.9,2181.11
-11800403.53,4655537.24,2172.57
-11800402.870000001,4655537.58,2179.38
-11800401.13,4655538.43,2181.13
-11800402.69,4655537.67,2181.27
-11800400.43,4655538.76,2172.4
-11800399.96,4655539.0,2177.4
-11800398.870000001,4655539.5200000005,2172.38
-11800397.27,4655540.29,2172.38
-11800395.69,4655541.07,2172.36
-11800394.13,4655541.83,2172.33
-11800392.58,4655542.59,2172.28
-11800390.99,4655543.36,2172.27
-11800389.42,4655544.14,2172.25
-11800387.84,4655544.9,2172.25
-11800386.25,4655545.67,2172.34
-11800384.68,4655546.44,2172.67
-11800384.370000001,4655546.61,2176.3
-11800382.77,4655547.39,2176.74
-11800381.21,4655548.15,2176.4
-11800379.65,4655548.9,2175.97
-11800378.1,4655549.66,2175.54
-11800376.57,4655550.41,2175.13
-11800375.24,4655551.05,2172.25
-11800372.09,4655552.59,2172.17
-11800373.66,4655551.83,2172.19
-11800368.71,4655554.25,2175.52
-11800370.51,4655553.36,2172.15
-11800367.11,4655555.0200000005,2175.72
-11800368.94,4655554.14,2172.51
-11800363.91,4655556.59,2176.11
-11800365.49,4655555.82,2175.92
-11800362.33,4655557.36,2176.34
-11800360.75,4655558.14,2176.54
-11800359.19,4655558.9,2176.71
-11800357.6,4655559.67,2176.94
-11800360.41,4655559.58,2177.06
-11800358.82,4655560.350000001,2177.08
-11800362.01,4655558.8,2176.88
-11800363.61,4655558.03,2176.69
-11800365.18,4655557.26,2176.46
-11800366.74,4655556.49,2176.28
-11800368.33,4655555.72,2176.09
-11800370.200000001,4655554.8100000005,2172.36
-11800371.78,4655554.03,2172.15
-11800373.36,4655553.2700000005,2172.19
-11800376.46,4655551.7700000005,2172.69
-11800374.92,4655552.51,2172.22
-11800376.27,4655551.86,2174.99
-11800377.82,4655551.11,2175.38
-11800379.36,4655550.37,2175.83
-11800380.91,4655549.61,2176.27
-11800382.46,4655548.86,2176.67
-11800384.040000001,4655548.08,2176.5
-11800385.63,4655547.3100000005,2176.04
-11800387.53,4655546.38,2172.48
-11800387.25,4655546.5200000005,2175.58
-11800389.11,4655545.59,2172.29
-11800388.870000001,4655545.74,2175.13
-11800390.69,4655544.84,2172.3
-11800392.290000001,4655544.0600000005,2172.3
-11800393.85,4655543.29,2172.34
-11800397.0,4655541.76,2172.38
-11800395.41,4655542.55,2172.38
-11800398.59,4655541.0,2172.4
-11800400.17,4655540.22,2172.4
-11800401.74,4655539.46,2172.6
-11800403.290000001,4655538.7,2172.65
-11800402.73,4655539.0,2178.42
-11800404.26,4655538.26,2178.97
-11800404.0,4655538.37,2181.56
-11800405.540000001,4655537.64,2181.96
-11800407.03,4655536.92,2182.78
-11800408.6,4655536.16,2182.76
-11800410.05,4655535.46,2184.07
-11800409.91,4655536.51,2184.01
-11800408.74,4655537.08,2179.73
-11800408.42,4655537.24,2182.92
-11800406.78,4655538.0200000005,2183.15
-11800406.24,4655538.2700000005,2172.55
-11800405.65,4655538.5600000005,2178.48
-11800405.4,4655538.71,2181.15
-11800404.64,4655539.0600000005,2172.53
-11800403.01,4655539.850000001,2172.73
-11800404.01,4655539.37,2178.92
-11800401.44,4655540.62,2172.42
-11800399.81,4655541.41,2172.4
-11800398.200000001,4655542.21,2172.38
-11800396.58,4655543.0,2172.38
-11800394.99,4655543.76,2172.36
-11800393.39,4655544.54,2172.33
-11800391.78,4655545.33,2172.3
-11800390.17,4655546.11,2172.29
-11800388.290000001,4655547.04,2175.31
-11800389.94,4655546.22,2174.83
-11800385.0,4655548.65,2176.22
-11800386.65,4655547.850000001,2175.76
-11800383.370000001,4655549.45,2176.67
-11800381.78,4655550.21,2176.47
-11800380.21,4655551.0,2176.04
-11800378.64,4655551.76,2175.58
-11800377.040000001,4655552.53,2175.36
-11800375.67,4655553.2,2172.26
-11800374.08,4655553.98,2172.21
-11800370.89,4655555.51,2172.15
-11800372.49,4655554.75,2172.17
-11800368.950000001,4655556.5,2176.38
-11800369.24,4655556.34,2172.51
-11800367.32,4655557.28,2176.61
-11800365.71,4655558.07,2176.8
-11800364.1,4655558.84,2177.0
-11800362.49,4655559.64,2177.07
-11800360.89,4655560.42,2177.08
-11800359.28,4655561.19,2177.06
-11800358.99,4655562.7700000005,2177.04
-11800360.55,4655562.01,2177.05
-11800362.13,4655561.25,2177.05
-11800363.700000001,4655560.49,2177.06
-11800365.32,4655559.69,2176.65
-11800366.870000001,4655558.94,2176.86
-11800368.43,4655558.19,2176.99
-11800371.950000001,4655556.46,2172.17
-11800370.36,4655557.22,2172.32
-11800373.540000001,4655555.69,2172.19
-11800375.1,4655554.93,2172.24
-11800377.97,4655553.54,2175.67
-11800376.61,4655554.19,2172.98
-11800381.1,4655552.03,2176.19
-11800379.55,4655552.78,2175.78
-11800382.65,4655551.2700000005,2176.63
-11800384.22,4655550.51,2176.55
-11800385.82,4655549.73,2176.1
-11800387.41,4655548.94,2175.65
-11800389.040000001,4655548.16,2175.21
-11800390.89,4655547.25,2172.28
-11800392.46,4655546.49,2172.4
-11800394.06,4655545.69,2172.32
-11800395.65,4655544.93,2172.36
-11800397.22,4655544.17,2172.36
-11800398.78,4655543.39,2172.38
-11800400.35,4655542.66,2172.36
-11800403.51,4655541.100000001,2172.63
-11800401.93,4655541.89,2172.44
-11800406.67,4655539.58,2172.6
-11800405.09,4655540.34,2172.52
-11800408.24,4655538.8,2172.63
-11800407.31,4655539.3,2181.99
-11800409.82,4655538.04,2172.67
-11800408.85,4655538.55,2182.49
-11800411.39,4655537.28,2172.73
-11800410.72,4655538.45,2172.71
-11800409.13,4655539.25,2172.65
-11800408.22,4655539.71,2181.81
-11800407.53,4655540.03,2172.61
-11800405.96,4655540.79,2172.55
-11800404.4,4655541.5600000005,2172.6
-11800402.81,4655542.34,2172.65
-11800401.25,4655543.100000001,2172.4
-11800398.08,4655544.63,2172.4
-11800399.67,4655543.86,2172.38
-11800394.94,4655546.17,2172.33
-11800396.52,4655545.39,2172.38
-11800391.790000001,4655547.69,2172.31
-11800393.18,4655547.03,2174.42
-11800388.39,4655549.38,2175.4
-11800389.98,4655548.600000001,2174.97
-11800386.77,4655550.16,2175.85
-11800385.17,4655550.94,2176.31
-11800383.55,4655551.74,2176.74
-11800381.98,4655552.51,2176.44
-11800380.46,4655553.25,2175.99
-11800378.9,4655554.01,2175.81
-11800377.3,4655554.79,2175.99
-11800376.03,4655555.39,2172.28
-11800371.3,4655557.7,2172.17
-11800374.44,4655556.17,2172.21
-11800369.67,4655558.5,2172.5
-11800372.89,4655556.93,2172.17
-11800366.26,4655560.15,2176.4
-11800369.36,4655558.67,2176.82
-11800364.72,4655560.93,2176.46
-11800367.790000001,4655559.43,2176.61
-11800361.5,4655562.49,2177.04
-11800363.11,4655561.72,2177.04
-11800359.94,4655563.26,2177.02
-11800360.59,4655564.26,2176.98
-11800362.17,4655563.5,2177.01
-11800363.72,4655562.73,2177.03
-11800365.32,4655561.94,2176.5
-11800366.91,4655561.19,2176.33
-11800368.51,4655560.4,2176.23
-11800370.09,4655559.64,2176.35
-11800370.39,4655559.47,2172.54
-11800372.0,4655558.69,2172.15
-11800373.56,4655557.93,2172.17
-11800375.13,4655557.17,2172.22
-11800376.700000001,4655556.41,2172.26
-11800377.96,4655555.8100000005,2176.27
-11800379.55,4655555.05,2176.13
-11800381.120000001,4655554.2700000005,2176.09
-11800382.65,4655553.54,2176.52
-11800384.22,4655552.75,2176.67
-11800385.84,4655551.98,2176.19
-11800387.450000001,4655551.19,2175.75
-11800389.06,4655550.4,2175.38
-11800390.63,4655549.65,2175.26
-11800392.21,4655548.87,2175.11
-11800395.64,4655547.2,2172.42
-11800393.8,4655548.100000001,2174.99
-11800398.78,4655545.68,2172.4
-11800397.22,4655546.44,2172.4
-11800400.38,4655544.88,2172.38
-11800401.98,4655544.12,2172.42
-11800403.55,4655543.34,2172.63
-11800406.700000001,4655541.82,2172.55
-11800405.120000001,4655542.58,2172.63
-11800408.27,4655541.05,2172.63
-11800409.86,4655540.28,2172.69
-11800411.450000001,4655539.5200000005,2172.73
-11800411.28,4655540.62,2172.71
-11800409.71,4655541.39,2172.67
-11800408.14,4655542.15,2172.61
-11800406.56,4655542.92,2172.53
-11800404.98,4655543.7,2172.57
-11800403.42,4655544.46,2172.58
-11800401.870000001,4655545.22,2172.38
-11800400.31,4655545.97,2172.38
-11800398.72,4655546.76,2172.4
-11800397.14,4655547.5200000005,2172.36
-11800395.55,4655548.29,2172.36
-11800390.52,4655550.76,2175.49
-11800395.3,4655548.41,2175.1
-11800388.950000001,4655551.5200000005,2175.63
-11800393.700000001,4655549.21,2175.24
-11800387.370000001,4655552.29,2175.8
-11800392.1,4655549.98,2175.36
-11800382.58,4655554.64,2176.5
-11800385.76,4655553.08,2176.21
-11800381.05,4655555.39,2176.26
-11800384.16,4655553.87,2176.67
-11800379.48,4655556.15,2176.38
-11800377.91,4655556.92,2176.56
-11800376.66,4655557.51,2172.36
-11800375.11,4655558.25,2172.22
-11800373.540000001,4655559.04,2172.19
-11800370.32,4655560.600000001,2172.51
-11800371.950000001,4655559.8100000005,2172.17
-11800370.07,4655560.74,2175.98
-11800368.47,4655561.53,2176.51
-11800366.89,4655562.29,2176.69
-11800363.73,4655563.82,2176.98
-11800365.3,4655563.05,2176.88
-11800362.18,4655564.59,2176.81
-11800360.63,4655565.350000001,2176.63
-11800362.6,4655565.65,2176.42
-11800364.15,4655564.91,2176.59
-11800365.66,4655564.16,2176.74
-11800367.21,4655563.41,2176.92
-11800368.8,4655562.64,2176.92
-11800370.72,4655561.7,2172.61
-11800370.5,4655561.8100000005,2175.5
-11800372.33,4655560.9,2172.17
-11800375.48,4655559.36,2172.24
-11800373.91,4655560.15,2172.21
-11800378.3,4655558.03,2176.77
-11800377.06,4655558.63,2172.58
-11800379.870000001,4655557.2700000005,2176.69
-11800381.44,4655556.5,2176.54
-11800383.0,4655555.74,2176.52
-11800384.53,4655554.99,2176.67
-11800386.14,4655554.22,2176.24
-11800387.76,4655553.43,2176.08
-11800389.36,4655552.64,2175.94
-11800390.94,4655551.87,2175.8
-11800392.53,4655551.11,2175.69
-11800394.120000001,4655550.33,2175.58
-11800396.0,4655549.41,2172.35
-11800395.72,4655549.5600000005,2175.44
-11800397.58,4655548.64,2172.38
-11800399.15,4655547.88,2172.4
-11800400.75,4655547.09,2172.36
-11800402.34,4655546.33,2172.4
-11800403.89,4655545.58,2172.58
-11800405.47,4655544.8100000005,2172.49
-11800407.03,4655544.05,2172.55
-11800408.6,4655543.29,2172.63
-11800410.18,4655542.51,2172.69
-11800411.75,4655541.75,2172.74
-11800411.84,4655542.76,2172.74
-11800410.25,4655543.54,2172.65
-11800408.69,4655544.3,2172.61
-11800407.15,4655545.05,2172.53
-11800405.58,4655545.82,2172.46
-11800403.99,4655546.600000001,2172.58
-11800402.44,4655547.36,2172.4
-11800399.28,4655548.89,2172.36
-11800400.870000001,4655548.13,2172.35
-11800396.13,4655550.43,2172.34
-11800397.68,4655549.67,2172.38
-11800395.82,4655550.600000001,2175.71
-11800394.25,4655551.36,2175.83
-11800392.63,4655552.14,2175.94
-11800391.03,4655552.93,2176.09
-11800389.47,4655553.69,2176.19
-11800387.89,4655554.47,2176.34
-11800386.31,4655555.24,2176.48
-11800384.72,4655556.0,2176.65
-11800383.14,4655556.76,2176.72
-11800381.59,4655557.54,2176.71
-11800380.02,4655558.3,2176.6
-11800378.450000001,4655559.0600000005,2176.47
-11800377.18,4655559.66,2172.69
-11800374.05,4655561.2,2172.19
-11800375.620000001,4655560.42,2172.23
-11800372.47,4655561.96,2172.17
-11800370.88,4655562.75,2172.54
-11800370.68,4655562.84,2175.11
-11800368.99,4655563.68,2176.69
-11800367.450000001,4655564.43,2176.55
-11800365.91,4655565.17,2176.38
-11800364.36,4655565.93,2176.19
-11800362.81,4655566.69,2176.05
-11800364.73,4655567.01,2175.81
-11800363.18,4655567.7700000005,2175.63
-11800367.83,4655565.51,2176.13
-11800366.27,4655566.2700000005,2175.97
-11800369.4,4655564.75,2176.31
-11800371.28,4655563.82,2172.19
-11800372.88,4655563.04,2172.21
-11800374.450000001,4655562.26,2172.24
-11800376.02,4655561.5200000005,2172.25
-11800377.57,4655560.7700000005,2172.67
-11800378.84,4655560.16,2176.21
-11800380.4,4655559.41,2176.3
-11800381.97,4655558.64,2176.42
-11800383.540000001,4655557.89,2176.56
-11800385.09,4655557.13,2176.67
-11800386.66,4655556.350000001,2176.76
-11800388.25,4655555.59,2176.65
-11800389.85,4655554.82,2176.55
-11800391.44,4655554.04,2176.4
-11800393.040000001,4655553.24,2176.29
-11800394.63,4655552.47,2176.17
-11800396.56,4655551.54,2172.35
-11800396.23,4655551.71,2176.01
-11800398.14,4655550.78,2172.36
-11800397.18,4655551.2700000005,2182.84
-11800399.69,4655550.0200000005,2172.35
-11800398.89,4655550.45,2181.01
-11800398.700000001,4655550.54,2183.08
-11800401.26,4655549.25,2172.33
-11800402.85,4655548.48,2172.42
-11800404.42,4655547.72,2172.76
-11800403.38,4655548.2700000005,2183.73
-11800406.05,4655546.92,2172.44
-11800407.6,4655546.17,2172.54
-11800409.14,4655545.42,2172.61
-11800412.3,4655543.89,2172.76
-11800410.73,4655544.66,2172.69
-11800412.88,4655544.5600000005,2172.78
-11800409.73,4655546.08,2172.63
-11800411.31,4655545.32,2172.72
-11800407.36,4655547.28,2180.96
-11800408.17,4655546.84,2172.56
-11800406.59,4655547.62,2172.46
-11800405.86,4655548.01,2180.09
-11800405.450000001,4655548.22,2184.26
-11800405.34,4655548.29,2185.52
-11800405.02,4655548.39,2172.44
-11800403.77,4655549.05,2185.49
-11800403.41,4655549.17,2172.88
-11800402.24,4655549.8,2185.15
-11800401.870000001,4655549.91,2172.34
-11800400.88,4655550.43,2182.9
-11800399.26,4655551.24,2183.59
-11800398.74,4655551.45,2172.26
-11800397.77,4655551.96,2182.92
-11800395.21,4655553.18,2176.35
-11800397.17,4655552.21,2172.35
-11800393.61,4655553.97,2176.47
-11800392.02,4655554.74,2176.59
-11800390.47,4655555.49,2176.74
-11800388.91,4655556.25,2176.75
-11800387.33,4655557.03,2176.59
-11800385.77,4655557.79,2176.53
-11800384.22,4655558.55,2176.36
-11800382.67,4655559.28,2176.23
-11800381.13,4655560.04,2176.11
-11800379.56,4655560.82,2175.98
-11800378.200000001,4655561.46,2172.92
-11800377.97,4655561.58,2175.88
-11800376.69,4655562.18,2172.24
-11800375.11,4655562.97,2172.21
-11800373.52,4655563.74,2172.22
-11800371.950000001,4655564.5,2172.19
-11800370.39,4655565.2700000005,2172.19
-11800370.11,4655565.41,2176.04
-11800368.57,4655566.17,2175.86
-11800367.02,4655566.92,2175.69
-11800365.43,4655567.69,2175.55
-11800363.89,4655568.44,2175.38
-11800365.39,4655568.99,2172.17
-11800365.19,4655569.09,2175.06
-11800366.77,4655568.33,2175.25
-11800368.33,4655567.57,2175.4
-11800369.88,4655566.82,2175.58
-11800371.68,4655565.93,2172.21
-11800373.28,4655565.16,2172.22
-11800374.86,4655564.4,2172.23
-11800376.42,4655563.63,2172.23
-11800377.950000001,4655562.9,2172.88
-11800379.31,4655562.26,2175.65
-11800382.46,4655560.72,2175.88
-11800380.88,4655561.48,2175.77
-11800385.58,4655559.2,2176.13
-11800383.99,4655559.96,2176.02
-11800387.15,4655558.44,2176.26
-11800388.68,4655557.69,2176.48
-11800390.23,4655556.94,2176.71
-11800391.81,4655556.18,2176.63
-11800393.36,4655555.42,2176.76
-11800394.950000001,4655554.66,2176.73
-11800396.53,4655553.88,2176.6
-11800396.92,4655553.68,2172.33
-11800398.52,4655552.9,2172.33
-11800399.040000001,4655552.69,2183.83
-11800400.58,4655551.96,2184.22
-11800400.46,4655552.0200000005,2185.5
-11800403.26,4655550.600000001,2172.44
-11800402.06,4655551.22,2185.04
-11800404.83,4655549.83,2172.51
-11800403.55,4655550.51,2185.95
-11800406.42,4655549.07,2172.4
-11800405.120000001,4655549.74,2185.82
-11800407.98,4655548.3100000005,2172.54
-11800407.19,4655548.73,2180.59
-11800406.72,4655548.96,2185.36
-11800409.540000001,4655547.55,2172.53
-11800408.64,4655548.0200000005,2181.74
-11800411.120000001,4655546.79,2172.71
-11800410.43,4655547.14,2179.58
-11800410.19,4655547.2700000005,2182.07
-11800412.700000001,4655546.01,2172.75
-11800410.99,4655547.88,2181.88
-11800411.91,4655547.39,2172.69
-11800408.77,4655548.93,2172.57
-11800409.4,4655548.65,2182.35
-11800407.89,4655549.39,2181.67
-11800407.200000001,4655549.69,2172.48
-11800405.99,4655550.32,2185.11
-11800405.620000001,4655550.46,2172.52
-11800404.92,4655550.83,2179.88
-11800404.5,4655551.05,2184.24
-11800404.35,4655551.13,2185.83
-11800404.02,4655551.24,2172.84
-11800402.91,4655551.84,2184.58
-11800401.27,4655552.61,2185.26
-11800399.76,4655553.37,2184.83
-11800399.35,4655553.5200000005,2172.31
-11800398.63,4655553.9,2180.15
-11800397.78,4655554.28,2172.32
-11800395.8,4655555.2700000005,2176.71
-11800394.22,4655556.03,2176.57
-11800392.67,4655556.7700000005,2176.44
-11800389.51,4655558.34,2176.65
-11800391.11,4655557.54,2176.5
-11800387.94,4655559.100000001,2176.26
-11800386.42,4655559.83,2175.94
-11800384.870000001,4655560.59,2175.82
-11800383.31,4655561.350000001,2175.69
-11800381.74,4655562.11,2175.58
-11800380.19,4655562.86,2175.42
-11800378.86,4655563.49,2172.46
-11800378.63,4655563.62,2175.34
-11800377.3,4655564.2700000005,2172.24
-11800375.73,4655565.03,2172.25
-11800374.16,4655565.79,2172.22
-11800372.58,4655566.5600000005,2172.25
-11800371.01,4655567.32,2172.22
-11800370.78,4655567.43,2175.28
-11800369.22,4655568.21,2175.09
-11800367.84,4655568.87,2172.21
-11800366.28,4655569.62,2172.11
-11800367.64,4655568.96,2175.03
-11800367.450000001,4655570.2700000005,2172.11
-11800369.01,4655569.51,2172.19
-11800370.58,4655568.75,2172.19
-11800372.16,4655567.98,2172.29
-11800372.040000001,4655568.04,2174.02
-11800373.75,4655567.2,2172.28
-11800375.32,4655566.46,2172.23
-11800376.870000001,4655565.69,2172.25
-11800378.47,4655564.92,2172.25
-11800379.81,4655564.28,2175.07
-11800381.39,4655563.5200000005,2175.21
-11800382.96,4655562.75,2175.35
-11800384.540000001,4655561.99,2175.46
-11800386.09,4655561.22,2175.67
-11800387.61,4655560.5,2176.08
-11800389.15,4655559.75,2176.51
-11800390.71,4655558.99,2176.67
-11800393.89,4655557.45,2176.19
-11800392.32,4655558.21,2176.25
-11800395.450000001,4655556.69,2176.34
-11800397.4,4655555.72,2172.3
-11800398.97,4655554.96,2172.32
-11800398.16,4655555.39,2181.17
-11800400.55,4655554.2,2172.28
-11800399.71,4655554.65,2181.32
-11800399.34,4655554.83,2185.29
-11800402.1,4655553.45,2172.49
-11800401.27,4655553.88,2181.36
-11800400.89,4655554.09,2185.36
-11800402.47,4655553.33,2185.59
-11800405.27,4655551.9,2172.54
-11800404.08,4655552.53,2185.2
-11800406.040000001,4655551.57,2180.82
-11800406.85,4655551.14,2172.42
-11800405.94,4655551.63,2181.92
-11800405.76,4655551.71,2183.82
-11800408.4,4655550.38,2172.5
-11800407.49,4655550.88,2181.99
-11800409.99,4655549.61,2172.6
-11800409.09,4655550.09,2181.84
-11800411.59,4655548.83,2172.69
-11800410.6,4655549.36,2182.72
-11800410.83,4655549.24,2180.38
-11800413.18,4655548.07,2172.72
-11800412.51,4655549.2700000005,2172.67
-11800411.46,4655549.82,2183.17
-11800410.93,4655550.03,2172.63
-11800409.950000001,4655550.54,2182.55
-11800409.36,4655550.79,2172.52
-11800408.51,4655551.25,2181.32
-11800407.790000001,4655551.57,2172.46
-11800408.4,4655551.3,2182.46
-11800403.33,4655553.8,2186.0
-11800406.9,4655552.04,2181.74
-11800403.02,4655553.88,2172.42
-11800405.15,4655552.89,2183.46
-11800402.16,4655554.350000001,2181.72
-11800401.77,4655554.5600000005,2185.88
-11800400.200000001,4655555.32,2185.9
-11800398.92,4655555.94,2182.97
-11800398.33,4655556.17,2172.25
-11800397.5,4655556.61,2181.48
-11800397.38,4655556.68,2182.74
-11800396.75,4655556.93,2172.29
-11800396.4,4655557.13,2176.19
-11800394.85,4655557.87,2176.07
-11800390.09,4655560.2,2176.74
-11800393.290000001,4655558.64,2175.99
-11800388.56,4655560.95,2176.36
-11800391.68,4655559.43,2176.42
-11800385.46,4655562.46,2175.48
-11800386.98,4655561.7,2175.88
-11800383.94,4655563.19,2175.21
-11800382.35,4655563.97,2175.09
-11800381.03,4655564.600000001,2172.3
-11800380.81,4655564.7,2174.97
-11800379.46,4655565.36,2172.31
-11800377.870000001,4655566.12,2172.24
-11800376.3,4655566.89,2172.25
-11800374.74,4655567.65,2172.24
-11800373.13,4655568.45,2172.78
-11800371.58,4655569.19,2172.56
-11800370.040000001,4655569.95,2172.17
-11800368.47,4655570.71,2172.11
-11800369.06,4655571.7700000005,2172.07
-11800370.64,4655571.0,2172.19
-11800372.22,4655570.23,2172.72
-11800373.8,4655569.47,2172.78
-11800375.42,4655568.69,2172.29
-11800376.950000001,4655567.94,2172.25
-11800378.540000001,4655567.16,2172.23
-11800380.09,4655566.42,2172.49
-11800381.66,4655565.65,2172.98
-11800384.620000001,4655564.24,2175.15
-11800383.290000001,4655564.850000001,2172.25
-11800386.18,4655563.46,2175.57
-11800387.72,4655562.73,2176.01
-11800390.8,4655561.23,2176.76
-11800389.25,4655561.98,2176.44
-11800392.38,4655560.46,2176.29
-11800393.99,4655559.68,2175.85
-11800395.59,4655558.91,2175.76
-11800397.49,4655557.97,2172.31
-11800397.17,4655558.14,2175.84
-11800396.94,4655558.2700000005,2178.36
-11800398.01,4655557.78,2183.9
-11800399.53,4655557.0200000005,2184.22
-11800401.27,4655556.18,2182.34
-11800401.03,4655556.3100000005,2185.02
-11800403.78,4655554.92,2172.4
-11800403.24,4655555.21,2178.22
-11800402.47,4655555.62,2186.36
-11800403.15,4655555.25,2179.13
-11800405.35,4655554.15,2172.49
-11800404.700000001,4655554.5,2179.42
-11800404.09,4655554.83,2185.88
-11800405.69,4655554.05,2185.51
-11800405.86,4655553.95,2183.69
-11800407.43,4655553.19,2183.47
-11800408.5,4655552.62,2172.5
-11800408.96,4655552.45,2184.11
-11800411.66,4655551.09,2172.67
-11800410.620000001,4655551.65,2183.32
-11800412.200000001,4655550.88,2183.17
-11800412.94,4655551.28,2172.65
-11800411.9,4655551.84,2183.15
-11800410.24,4655552.66,2183.94
-11800408.700000001,4655553.39,2183.51
-11800408.450000001,4655553.54,2186.04
-11800408.19,4655553.59,2172.4
-11800407.16,4655554.14,2183.03
-11800406.950000001,4655554.26,2185.38
-11800405.370000001,4655555.03,2185.45
-11800404.43,4655555.45,2179.06
-11800402.64,4655556.34,2181.38
-11800402.23,4655556.55,2185.8
-11800401.9,4655556.66,2172.4
-11800400.88,4655557.21,2183.56
-11800400.76,4655557.28,2184.85
-11800399.21,4655558.0200000005,2184.8
-11800398.03,4655558.59,2180.65
-11800397.86,4655558.67,2182.36
-11800397.78,4655558.72,2183.35
-11800396.9,4655559.100000001,2175.69
-11800396.53,4655559.3,2179.88
-11800395.34,4655559.87,2175.57
-11800393.73,4655560.65,2175.94
-11800392.120000001,4655561.42,2176.42
-11800390.49,4655562.22,2176.76
-11800388.96,4655562.98,2176.35
-11800387.42,4655563.72,2175.9
-11800385.88,4655564.47,2175.49
-11800384.370000001,4655565.2,2175.05
-11800382.950000001,4655565.88,2173.0
-11800381.38,4655566.65,2172.67
-11800378.3,4655568.14,2172.23
-11800379.870000001,4655567.38,2172.23
-11800376.72,4655568.92,2172.23
-11800375.15,4655569.68,2172.34
-11800373.53,4655570.45,2172.9
-11800371.97,4655571.21,2172.67
-11800371.82,4655571.3,2174.65
-11800370.43,4655571.97,2172.25
-11800371.34,4655572.850000001,2172.38
-11800372.870000001,4655572.11,2172.67
-11800374.42,4655571.350000001,2172.72
-11800376.01,4655570.58,2172.19
-11800377.55,4655569.84,2172.25
-11800379.1,4655569.09,2172.26
-11800380.61,4655568.33,2172.21
-11800382.16,4655567.600000001,2172.26
-11800383.71,4655566.850000001,2172.67
-11800385.05,4655566.21,2175.17
-11800386.52,4655565.5,2175.57
-11800388.02,4655564.79,2176.0
-11800389.53,4655564.05,2176.44
-11800391.07,4655563.3100000005,2176.75
-11800392.64,4655562.55,2176.32
-11800394.19,4655561.7700000005,2175.88
-11800395.78,4655561.01,2175.5
-11800395.46,4655561.19,2179.15
-11800396.950000001,4655560.46,2179.98
-11800398.4,4655559.78,2181.27
-11800399.8,4655559.09,2182.55
-11800399.67,4655559.17,2183.9
-11800401.14,4655558.46,2184.3
-11800402.59,4655557.76,2185.3
-11800404.07,4655557.0600000005,2186.15
-11800406.200000001,4655555.98,2179.76
-11800405.92,4655556.14,2182.77
-11800405.67,4655556.2700000005,2185.4
-11800408.44,4655554.86,2172.4
-11800408.620000001,4655554.86,2186.74
-11800407.22,4655555.5200000005,2185.13
-11800410.19,4655554.07,2186.51
-11800410.38,4655553.99,2184.57
-11800411.99,4655553.19,2183.42
-11800412.18,4655553.98,2182.47
-11800411.57,4655554.21,2172.57
-11800410.72,4655554.69,2181.3
-11800410.38,4655554.86,2184.7
-11800410.290000001,4655554.91,2185.63
-11800408.66,4655555.71,2186.6
-11800407.200000001,4655556.42,2185.63
-11800405.63,4655557.18,2185.55
-11800404.05,4655557.96,2185.71
-11800402.42,4655558.74,2186.34
-11800401.040000001,4655559.4,2184.48
-11800399.69,4655560.0600000005,2182.25
-11800398.22,4655560.7700000005,2180.99
-11800396.68,4655561.5,2180.34
-11800395.16,4655562.25,2179.85
-11800395.540000001,4655562.03,2175.5
-11800393.94,4655562.83,2175.94
-11800395.25,4655562.2,2178.77
-11800392.34,4655563.600000001,2176.4
-11800390.74,4655564.38,2176.74
-11800387.66,4655565.86,2175.9
-11800389.200000001,4655565.14,2176.32
-11800386.11,4655566.62,2175.46
-11800384.59,4655567.37,2175.02
-11800381.66,4655568.76,2172.21
-11800383.25,4655568.01,2172.23
-11800378.51,4655570.3100000005,2172.21
-11800380.09,4655569.5200000005,2172.23
-11800375.39,4655571.82,2172.27
-11800376.98,4655571.05,2172.19
-11800372.17,4655573.39,2172.53
-11800373.74,4655572.63,2172.67
-11800373.69,4655573.94,2172.56
-11800375.27,4655573.15,2172.31
-11800376.870000001,4655572.39,2172.15
-11800378.44,4655571.63,2172.19
-11800380.03,4655570.850000001,2172.19
-11800381.6,4655570.09,2172.19
-11800383.18,4655569.33,2172.22
-11800384.69,4655568.61,2173.07
-11800384.540000001,4655568.69,2174.92
-11800386.07,4655567.95,2175.38
-11800387.620000001,4655567.19,2175.79
-11800389.16,4655566.46,2176.23
-11800390.700000001,4655565.72,2176.63
-11800392.290000001,4655564.95,2176.53
-11800393.9,4655564.16,2176.06
-11800395.51,4655563.36,2175.61
-11800397.14,4655562.59,2175.11
-11800396.78,4655562.78,2179.13
-11800398.27,4655562.05,2180.08
-11800400.57,4655560.91,2172.29
-11800401.19,4655560.66,2182.88
-11800399.8,4655561.33,2180.82
-11800402.64,4655559.96,2184.05
-11800402.46,4655560.07,2186.01
-11800403.99,4655559.32,2186.46
-11800406.22,4655558.2,2179.35
-11800406.38,4655558.11,2177.77
-11800405.67,4655558.5,2185.26
-11800407.17,4655557.78,2186.05
-11800408.66,4655557.0600000005,2186.67
-11800411.59,4655555.57,2172.5
-11800410.35,4655556.23,2185.13
-11800410.450000001,4655557.04,2185.15
-11800410.11,4655557.13,2172.48
-11800408.74,4655557.88,2186.65
-11800407.25,4655558.59,2185.86
-11800406.450000001,4655558.94,2177.73
-11800406.31,4655559.0200000005,2179.17
-11800406.120000001,4655559.13,2181.26
-11800405.73,4655559.34,2185.38
-11800404.07,4655560.15,2186.38
-11800402.71,4655560.79,2184.0
-11800401.3,4655561.48,2182.49
-11800402.23,4655560.98,2172.34
-11800400.07,4655562.05,2178.63
-11800400.64,4655561.74,2172.3
-11800398.43,4655562.850000001,2179.34
-11800399.07,4655562.51,2172.35
-11800396.93,4655563.5600000005,2178.58
-11800397.24,4655563.42,2175.17
-11800394.040000001,4655564.98,2176.05
-11800395.63,4655564.21,2175.56
-11800392.450000001,4655565.75,2176.48
-11800390.84,4655566.54,2176.69
-11800389.3,4655567.28,2176.27
-11800387.76,4655568.0200000005,2175.83
-11800386.21,4655568.79,2175.4
-11800384.9,4655569.4,2172.29
-11800383.34,4655570.16,2172.22
-11800384.69,4655569.5200000005,2174.96
-11800381.76,4655570.92,2172.19
-11800380.19,4655571.69,2172.17
-11800378.61,4655572.46,2172.15
-11800377.06,4655573.21,2172.11
-11800375.46,4655573.98,2172.19
-11800376.39,4655574.72,2172.11
-11800377.99,4655573.93,2172.09
-11800379.58,4655573.18,2172.1
-11800381.15,4655572.39,2172.1
-11800382.700000001,4655571.66,2172.19
-11800384.28,4655570.9,2172.23
-11800385.870000001,4655570.14,2172.56
-11800385.65,4655570.25,2175.24
-11800387.47,4655569.34,2172.23
-11800387.19,4655569.49,2175.59
-11800388.700000001,4655568.7700000005,2176.03
-11800390.25,4655568.0200000005,2176.44
-11800391.8,4655567.2700000005,2176.73
-11800393.43,4655566.49,2176.29
-11800396.67,4655564.9,2175.4
-11800395.040000001,4655565.7,2175.84
-11800398.51,4655563.99,2172.3
-11800398.27,4655564.13,2174.94
-11800400.11,4655563.21,2172.31
-11800401.69,4655562.45,2172.33
-11800403.24,4655561.71,2172.36
-11800404.33,4655561.21,2177.48
-11800402.540000001,4655562.09,2179.96
-11800404.0,4655561.4,2181.01
-11800403.86,4655561.46,2182.6
-11800403.67,4655561.57,2184.6
-11800406.39,4655560.19,2172.46
-11800405.16,4655560.86,2185.58
-11800407.950000001,4655559.43,2172.42
-11800407.52,4655559.65,2177.02
-11800409.540000001,4655558.65,2172.44
-11800408.34,4655559.3100000005,2184.97
-11800409.93,4655558.53,2184.82
-11800410.08,4655559.2,2172.42
-11800408.52,4655559.96,2172.38
-11800406.92,4655560.73,2172.48
-11800405.35,4655561.5,2172.5
-11800404.25,4655562.100000001,2184.4
-11800403.790000001,4655562.26,2172.36
-11800402.200000001,4655563.03,2172.32
-11800400.64,4655563.78,2172.29
-11800399.06,4655564.55,2172.28
-11800397.21,4655565.47,2175.24
-11800395.61,4655566.25,2175.67
-11800394.01,4655567.0200000005,2176.11
-11800390.82,4655568.58,2176.6
-11800392.39,4655567.82,2176.57
-11800389.290000001,4655569.32,2176.15
-11800389.6,4655569.15,2172.4
-11800388.05,4655569.91,2172.34
-11800386.47,4655570.67,2172.22
-11800384.9,4655571.44,2172.19
-11800383.32,4655572.2,2172.19
-11800381.76,4655572.96,2172.06
-11800378.61,4655574.49,2172.06
-11800380.200000001,4655573.71,2172.05
-11800377.03,4655575.26,2172.04
-11800379.26,4655575.49,2172.03
-11800380.85,4655574.72,2172.06
-11800382.41,4655573.96,2172.09
-11800387.14,4655571.67,2172.21
-11800383.96,4655573.21,2172.22
-11800388.71,4655570.9,2172.23
-11800385.55,4655572.43,2172.21
-11800390.3,4655570.14,2172.23
-11800391.88,4655569.38,2172.31
-11800393.41,4655568.63,2172.44
-11800393.07,4655568.83,2176.56
-11800394.67,4655568.05,2176.03
-11800396.3,4655567.25,2175.6
-11800397.94,4655566.46,2175.15
-11800399.790000001,4655565.55,2172.28
-11800401.370000001,4655564.78,2172.3
-11800402.9,4655564.04,2172.33
-11800404.450000001,4655563.26,2172.38
-11800407.64,4655561.74,2172.4
-11800406.02,4655562.53,2172.65
-11800409.23,4655560.97,2172.38
-11800408.3,4655562.21,2172.36
-11800406.71,4655562.97,2172.53
-11800406.56,4655563.0600000005,2174.19
-11800405.15,4655563.73,2172.44
-11800403.59,4655564.49,2172.33
-11800402.01,4655565.26,2172.27
-11800398.59,4655566.93,2174.92
-11800400.43,4655566.03,2172.27
-11800396.98,4655567.72,2175.38
-11800398.83,4655566.8,2172.24
-11800395.71,4655568.32,2172.4
-11800397.26,4655567.57,2172.27
-11800395.4,4655568.49,2175.88
-11800394.15,4655569.08,2172.3
-11800392.57,4655569.84,2172.21
-11800390.99,4655570.61,2172.21
-11800389.42,4655571.38,2172.22
-11800387.870000001,4655572.13,2172.19
-11800386.28,4655572.9,2172.19
-11800384.69,4655573.68,2172.17
-11800383.13,4655574.44,2172.11
-11800381.540000001,4655575.2,2172.03
-11800379.98,4655575.96,2172.03
-11800386.700000001,4655573.88,2172.19
-11800383.56,4655575.42,2172.03
-11800389.89,4655572.350000001,2172.19
-11800385.120000001,4655574.65,2172.17
-11800389.5,4655572.57,2176.83
-11800388.3,4655573.12,2172.19
-11800391.46,4655571.59,2172.15
-11800390.97,4655571.86,2178.1
-11800390.88,4655571.91,2179.17
-11800393.040000001,4655570.83,2172.21
-11800392.66,4655571.04,2176.69
-11800394.6,4655570.05,2172.22
-11800394.120000001,4655570.350000001,2177.92
-11800396.14,4655569.33,2172.75
-11800397.74,4655568.5600000005,2172.25
-11800399.3,4655567.8,2172.23
-11800400.88,4655567.03,2172.27
-11800402.46,4655566.2700000005,2172.29
-11800404.06,4655565.5,2172.33
-11800405.64,4655564.72,2172.4
-11800407.23,4655563.96,2172.4
-11800407.07,4655564.04,2174.25
-11800406.75,4655565.0600000005,2172.48
-11800406.64,4655565.11,2173.6
-11800405.21,4655565.8100000005,2172.36
-11800402.11,4655567.3,2172.25
-11800403.67,4655566.55,2172.34
-11800400.51,4655568.09,2172.24
-11800398.93,4655568.850000001,2172.22
-11800397.34,4655569.62,2172.36
-11800397.28,4655569.65,2173.23
-11800395.69,4655570.41,2173.25
-11800394.22,4655571.15,2172.11
-11800393.71,4655571.42,2177.98
-11800392.63,4655571.9,2172.17
-11800388.97,4655573.73,2178.17
-11800392.120000001,4655572.2,2178.23
-11800387.9,4655574.19,2172.13
-11800390.43,4655573.04,2179.46
-11800384.77,4655575.73,2171.99
-11800386.33,4655574.95,2172.06
-11800387.92,4655575.42,2172.13
-11800389.11,4655574.87,2176.97
-11800389.51,4655574.65,2172.15
-11800392.11,4655573.44,2178.99
-11800390.55,4655574.2,2178.86
-11800393.8,4655572.61,2177.65
-11800395.33,4655571.87,2178.21
-11800395.120000001,4655572.0,2180.55
-11800396.89,4655571.12,2178.04
-11800396.71,4655571.21,2180.11
-11800396.63,4655571.26,2181.07
-11800398.97,4655570.0600000005,2172.23
-11800398.540000001,4655570.32,2177.17
-11800400.55,4655569.29,2172.24
-11800402.14,4655568.53,2172.25
-11800403.700000001,4655567.79,2172.28
-11800401.790000001,4655569.49,2172.22
-11800400.200000001,4655570.25,2172.19
-11800398.6,4655571.0200000005,2172.15
-11800398.17,4655571.2700000005,2177.01
-11800398.03,4655571.350000001,2178.69
-11800396.25,4655572.23,2181.44
-11800394.77,4655572.94,2180.44
-11800393.91,4655573.3,2172.17
-11800393.48,4655573.54,2177.31
-11800393.31,4655573.64,2179.19
-11800393.200000001,4655573.71,2180.6
-11800391.8,4655574.38,2178.67
-11800389.17,4655575.600000001,2172.13
-11800390.28,4655575.11,2177.97
-11800393.51,4655574.45,2180.8
-11800392.56,4655574.69,2177.83
-11800391.08,4655575.07,2178.59
-11800389.450000001,4655575.48,2178.81
-11800385.0,4655576.15,2172.07
-11800388.950000001,4655575.18,2179.13
-11800388.36,4655575.3,2177.3
-11800386.71,4655575.72,2172.15
-11800390.8,4655574.71,2179.73
-11800392.21,4655574.34,2178.9
-11800394.59,4655573.75,2181.13
-11800401.6,4655569.600000001,2172.33
-11800399.89,4655570.05,2172.32
-11800398.17,4655570.5,2172.32
-11800397.84,4655570.61,2176.72
-11800396.78,4655570.84,2173.36
-11800396.27,4655571.0,2177.17
-11800395.06,4655571.28,2173.34
-11800393.040000001,4655571.8,2172.3
-11800393.13,4655571.8100000005,2178.05
-11800391.31,4655572.23,2172.3
-11800390.67,4655572.43,2175.74
-11800389.56,4655572.67,2172.3
-11800389.78,4655572.67,2178.35
-11800389.18,4655572.8100000005,2176.47
-11800387.83,4655573.13,2172.28
-11800386.15,4655573.5600000005,2172.3
-11800384.47,4655573.99,2172.27
-11800382.72,4655574.43,2172.25
-11800380.94,4655574.88,2172.17
-11800379.23,4655575.33,2172.13
-11800378.450000001,4655575.13,2172.15
-11800380.120000001,4655574.7,2172.11
-11800381.81,4655574.26,2172.17
-11800383.52,4655573.83,2172.25
-11800385.21,4655573.4,2172.26
-11800388.46,4655572.58,2177.13
-11800386.89,4655572.97,2172.24
-11800390.86,4655572.0,2179.38
-11800390.450000001,4655572.100000001,2178.11
-11800388.59,4655572.53,2172.28
-11800390.27,4655572.11,2172.27
-11800393.790000001,4655571.24,2178.08
-11800391.950000001,4655571.67,2172.28
-11800393.66,4655571.24,2172.29
-11800395.67,4655570.73,2173.32
-11800397.31,4655570.29,2173.27
-11800397.02,4655570.39,2172.36
-11800398.69,4655569.96,2172.3
-11800400.38,4655569.51,2172.31
-11800402.06,4655569.09,2172.33
-11800404.3,4655566.59,2172.44
-11800402.58,4655567.0200000005,2172.4
-11800400.88,4655567.44,2172.36
-11800399.18,4655567.89,2172.35
-11800398.290000001,4655568.13,2175.0
-11800397.46,4655568.32,2172.36
-11800396.72,4655568.5200000005,2175.44
-11800395.75,4655568.76,2172.36
-11800395.15,4655568.92,2175.88
-11800394.1,4655569.17,2172.53
-11800393.56,4655569.32,2176.28
-11800392.36,4655569.600000001,2172.51
-11800391.98,4655569.74,2176.69
-11800390.64,4655570.04,2172.49
-11800388.92,4655570.49,2172.47
-11800387.15,4655570.94,2172.38
-11800385.41,4655571.38,2172.34
-11800383.69,4655571.8100000005,2172.3
-11800381.98,4655572.26,2172.28
-11800380.26,4655572.67,2172.25
-11800378.53,4655573.11,2172.26
-11800376.81,4655573.57,2172.24
-11800375.14,4655573.99,2172.44
-11800373.51,4655574.4,2172.8
-11800374.19,4655573.78,2172.65
-11800375.74,4655573.36,2172.23
-11800377.43,4655572.95,2172.25
-11800379.1,4655572.5200000005,2172.25
-11800380.78,4655572.08,2172.25
-11800382.46,4655571.66,2172.27
-11800385.1,4655571.0,2175.25
-11800384.16,4655571.23,2172.31
-11800386.94,4655570.53,2175.74
-11800385.950000001,4655570.76,2172.61
-11800388.78,4655570.07,2176.24
-11800387.65,4655570.33,2172.69
-11800390.6,4655569.61,2176.71
-11800389.24,4655569.93,2172.44
-11800392.26,4655569.17,2176.61
-11800393.84,4655568.78,2176.21
-11800395.36,4655568.38,2175.78
-11800396.91,4655567.99,2175.38
-11800398.48,4655567.57,2174.97
-11800397.66,4655567.7700000005,2172.35
-11800399.38,4655567.33,2172.34
-11800401.07,4655566.9,2172.33
-11800402.76,4655566.46,2172.38
-11800404.450000001,4655566.03,2172.42
-11800406.18,4655565.59,2172.54
-11800406.73,4655563.43,2172.52
-11800405.61,4655563.72,2174.47
-11800405.02,4655563.87,2172.57
-11800403.26,4655564.3100000005,2172.42
-11800401.56,4655564.74,2172.4
-11800399.83,4655565.19,2172.38
-11800398.09,4655565.63,2172.36
-11800397.27,4655565.86,2175.19
-11800395.67,4655566.24,2175.61
-11800394.11,4655566.66,2176.04
-11800392.540000001,4655567.04,2176.46
-11800390.96,4655567.46,2176.86
-11800389.11,4655567.92,2176.42
-11800387.22,4655568.4,2175.94
-11800385.33,4655568.87,2175.42
-11800382.66,4655569.54,2172.34
-11800380.950000001,4655569.97,2172.3
-11800379.22,4655570.41,2172.33
-11800377.46,4655570.86,2172.33
-11800375.73,4655571.3,2172.29
-11800374.13,4655571.7,2172.75
-11800372.47,4655572.12,2172.97
-11800371.27,4655572.44,2174.57
-11800370.63,4655572.600000001,2172.65
-11800369.96,4655572.36,2174.86
-11800370.950000001,4655572.11,2172.76
-11800372.69,4655571.67,2172.98
-11800374.26,4655571.26,2172.57
-11800375.85,4655570.850000001,2172.3
-11800377.52,4655570.41,2172.31
-11800379.22,4655569.99,2172.32
-11800380.89,4655569.5600000005,2172.27
-11800382.57,4655569.12,2172.3
-11800385.22,4655568.48,2175.36
-11800387.05,4655568.01,2175.82
-11800388.9,4655567.54,2176.35
-11800390.74,4655567.08,2176.83
-11800392.31,4655566.68,2176.51
-11800393.85,4655566.26,2176.09
-11800395.38,4655565.88,2175.67
-11800396.94,4655565.49,2175.26
-11800397.74,4655565.26,2172.35
-11800399.450000001,4655564.82,2172.36
-11800401.14,4655564.4,2172.36
-11800402.83,4655563.97,2172.4
-11800404.52,4655563.53,2172.5
-11800406.27,4655563.09,2172.63
-11800407.92,4655562.67,2172.44
-11800409.03,4655560.38,2172.5
-11800407.33,4655560.82,2172.5
-11800407.01,4655560.91,2177.06
-11800405.68,4655561.22,2172.73
-11800405.17,4655561.38,2176.58
-11800403.93,4655561.67,2172.56
-11800405.1,4655561.42,2181.85
-11800404.58,4655561.54,2180.15
-11800403.9,4655561.7,2177.98
-11800402.19,4655562.12,2172.46
-11800404.56,4655561.58,2185.56
-11800404.17,4655561.66,2184.31
-11800400.47,4655562.55,2172.4
-11800402.91,4655562.0,2185.75
-11800402.63,4655562.0600000005,2184.83
-11800401.8,4655562.25,2182.19
-11800398.75,4655562.99,2172.38
-11800399.02,4655562.95,2178.75
-11800397.05,4655563.42,2172.4
-11800397.67,4655563.29,2179.92
-11800395.72,4655563.78,2179.13
-11800394.67,4655564.04,2175.76
-11800393.11,4655564.43,2176.17
-11800391.53,4655564.83,2176.61
-11800389.85,4655565.24,2176.75
-11800387.97,4655565.73,2176.23
-11800386.13,4655566.2,2175.74
-11800384.27,4655566.66,2175.25
-11800381.66,4655567.3100000005,2172.47
-11800380.09,4655567.7,2173.0
-11800378.120000001,4655568.21,2172.32
-11800376.43,4655568.64,2172.36
-11800374.71,4655569.08,2172.38
-11800373.16,4655569.47,2172.9
-11800371.42,4655569.91,2172.9
-11800369.51,4655570.38,2172.32
-11800367.78,4655570.82,2172.26
-11800367.620000001,4655570.44,2172.23
-11800369.33,4655570.0,2172.27
-11800371.64,4655569.42,2174.17
-11800371.06,4655569.57,2172.4
-11800372.84,4655569.11,2172.76
-11800374.41,4655568.71,2172.4
-11800376.05,4655568.28,2172.34
-11800377.73,4655567.87,2172.32
-11800379.6,4655567.38,2172.92
-11800381.32,4655566.94,2173.06
-11800383.66,4655566.36,2175.07
-11800382.78,4655566.58,2172.31
-11800385.48,4655565.91,2175.53
-11800387.34,4655565.44,2176.03
-11800389.15,4655564.97,2176.51
-11800390.9,4655564.53,2176.76
-11800392.46,4655564.13,2176.36
-11800395.32,4655563.43,2180.17
-11800394.0,4655563.74,2175.96
-11800396.790000001,4655563.03,2179.58
-11800395.51,4655563.350000001,2175.5
-11800398.76,4655562.53,2180.48
-11800398.35,4655562.64,2179.17
-11800401.65,4655561.83,2184.35
-11800401.19,4655561.94,2182.86
-11800397.93,4655562.72,2172.4
-11800404.040000001,4655561.24,2186.61
-11800404.15,4655561.18,2181.59
-11800402.950000001,4655561.47,2177.71
-11800401.3,4655561.86,2172.38
-11800406.950000001,4655560.49,2185.25
-11800405.75,4655560.7700000005,2181.34
-11800405.120000001,4655560.91,2179.3
-11800403.0,4655561.42,2172.44
-11800408.540000001,4655560.08,2184.94
-11800406.11,4655560.65,2177.04
-11800404.76,4655560.96,2172.65
-11800406.44,4655560.55,2172.61
-11800408.08,4655560.13,2172.46
-11800409.790000001,4655559.7,2172.51
-11800410.71,4655557.62,2172.63
-11800409.01,4655558.03,2172.55
-11800407.34,4655558.46,2172.56
-11800409.56,4655557.96,2185.45
-11800405.620000001,4655558.9,2172.61
-11800408.03,4655558.350000001,2186.07
-11800406.4,4655558.75,2186.34
-11800404.58,4655559.21,2185.86
-11800403.94,4655559.37,2183.85
-11800403.59,4655559.45,2182.75
-11800400.41,4655560.22,2172.44
-11800403.03,4655559.600000001,2186.38
-11800401.33,4655560.04,2186.4
-11800398.03,4655560.850000001,2181.29
-11800395.950000001,4655561.37,2179.99
-11800393.03,4655562.09,2176.1
-11800391.47,4655562.49,2176.54
-11800389.82,4655562.9,2176.85
-11800387.950000001,4655563.38,2176.35
-11800386.08,4655563.850000001,2175.86
-11800384.21,4655564.32,2175.35
-11800382.44,4655564.76,2175.15
-11800380.69,4655565.2,2175.11
-11800379.94,4655565.38,2172.79
-11800378.950000001,4655565.63,2175.07
-11800378.06,4655565.86,2172.33
-11800376.32,4655566.3,2172.35
-11800374.63,4655566.72,2172.34
-11800372.91,4655567.16,2172.34
-11800371.18,4655567.59,2172.35
-11800369.48,4655568.0200000005,2172.44
-11800368.78,4655568.22,2175.53
-11800367.06,4655568.65,2175.48
-11800365.31,4655569.09,2175.42
-11800365.15,4655568.7,2175.55
-11800366.82,4655568.2700000005,2175.59
-11800368.5,4655567.83,2175.65
-11800370.19,4655567.41,2175.69
-11800369.58,4655567.5600000005,2173.83
-11800370.73,4655567.26,2172.29
-11800372.4,4655566.82,2172.31
-11800374.13,4655566.4,2172.44
-11800375.76,4655565.99,2172.32
-11800378.34,4655565.34,2175.15
-11800377.41,4655565.5600000005,2172.29
-11800380.02,4655564.92,2175.21
-11800381.72,4655564.47,2175.23
-11800383.41,4655564.03,2175.25
-11800385.200000001,4655563.59,2175.55
-11800387.03,4655563.13,2176.04
-11800388.88,4655562.66,2176.54
-11800390.6,4655562.23,2176.72
-11800392.16,4655561.83,2176.33
-11800394.88,4655561.16,2179.56
-11800393.73,4655561.43,2175.9
-11800396.950000001,4655560.63,2180.92
-11800396.66,4655560.71,2179.96
-11800399.56,4655559.98,2183.88
-11800399.17,4655560.0600000005,2182.6
-11800402.1,4655559.34,2186.63
-11800403.58,4655558.98,2185.95
-11800405.33,4655558.53,2186.24
-11800407.120000001,4655558.08,2186.59
-11800408.42,4655557.74,2185.38
-11800410.09,4655557.3100000005,2185.38
-11800407.38,4655557.95,2176.57
-11800406.17,4655558.25,2172.59
-11800407.83,4655557.83,2172.51
-11800409.540000001,4655557.38,2172.54
-11800411.23,4655556.97,2172.61
-11800410.700000001,4655555.22,2172.67
-11800412.05,4655554.92,2182.73
-11800408.97,4655555.63,2172.59
-11800410.28,4655555.350000001,2182.5
-11800409.99,4655555.43,2181.51
-11800407.24,4655556.08,2172.52
-11800409.33,4655555.62,2184.9
-11800408.77,4655555.74,2183.06
-11800406.41,4655556.3,2175.38
-11800405.55,4655556.5,2172.61
-11800408.17,4655555.91,2186.73
-11800406.38,4655556.350000001,2186.52
-11800405.81,4655556.5,2184.67
-11800405.31,4655556.61,2183.05
-11800404.36,4655556.850000001,2185.45
-11800403.64,4655557.03,2183.15
-11800403.22,4655557.13,2181.78
-11800400.33,4655557.83,2172.47
