412423.14,4265861.66,2172.46,101,95,95
412424.39,4265862.25,2172.58,79,73,73
412425.61,4265862.83,2172.40,47,51,50
412428.10,4265864.00,2172.36,2,32,30
412426.85,4265863.42,2172.35,33,58,54
412430.58,4265865.17,2172.34,24,15,20
412432.06,4265865.88,2175.83,139,122,130
412433.33,4265866.48,2175.94,155,132,140
412434.59,4265867.08,2176.09,160,130,138
412435.82,4265867.66,2176.19,160,129,135
412437.06,4265868.25,2176.34,158,129,134
412438.31,4265868.84,2176.48,122,95,102
412439.56,4265869.42,2176.65,117,90,97
412440.80,4265870.00,2176.72,181,154,161
412442.02,4265870.59,2176.71,157,130,135
412443.26,4265871.17,2176.60,149,123,126
412444.49,4265871.75,2176.47,141,115,118
412445.49,4265872.21,2172.69,78,68,69
412447.96,4265873.38,2172.19,1,20,35
412446.72,4265872.79,2172.23,8,18,28
412449.20,4265873.96,2172.17,2,23,40
412453.15,4265875.84,2176.55,187,180,188
412454.36,4265876.41,2176.38,189,182,190
412455.58,4265876.99,2176.19,195,189,193
412456.80,4265877.57,2176.05,175,169,173
412458.05,4265878.15,2175.85,189,187,192
412459.27,4265878.73,2175.71,179,180,184
412460.48,4265879.30,2175.52,182,185,190
412461.71,4265879.88,2175.35,179,180,184
412466.22,4265882.96,2172.07,26,41,48
412464.98,4265882.38,2172.08,34,47,53
412459.02,4265879.58,2175.27,173,171,176
412457.76,4265878.99,2175.46,179,180,185
412455.30,4265877.83,2175.81,181,178,185
412456.52,4265878.41,2175.63,181,180,185
412452.86,4265876.69,2176.13,175,170,176
412454.09,4265877.27,2175.97,177,174,181
412450.15,4265875.40,2172.19,6,18,34
412448.89,4265874.81,2172.21,3,22,37
412447.65,4265874.21,2172.24,5,21,34
412446.42,4265873.65,2172.25,17,26,35
412445.20,4265873.08,2172.67,53,43,44
412444.20,4265872.61,2176.21,147,128,132
412442.97,4265872.04,2176.30,152,125,130
412441.73,4265871.45,2176.42,147,120,125
412440.50,4265870.88,2176.56,165,138,145
412439.28,4265870.30,2176.67,116,89,96
412438.04,4265869.71,2176.76,149,124,130
412436.79,4265869.13,2176.65,162,133,138
412435.53,4265868.54,2176.55,159,126,133
412434.28,4265867.95,2176.40,164,133,141
412433.02,4265867.34,2176.29,160,133,140
412431.77,4265866.75,2176.17,154,139,146
412430.25,4265866.04,2172.35,12,9,26
412430.51,4265866.17,2176.01,12,9,26
412429.01,4265865.46,2172.36,4,14,26
412426.55,4265864.30,2172.33,31,51,49
412425.30,4265863.71,2172.42,107,112,108
412424.06,4265863.13,2172.76,98,97,95
412422.78,4265862.52,2172.44,69,87,73
412421.56,4265861.95,2172.54,71,92,77
412420.35,4265861.38,2172.61,64,87,71
412417.86,4265860.21,2172.76,68,89,70
412419.10,4265860.80,2172.69,61,84,64
412416.61,4265859.62,2172.79,82,96,83
412415.38,4265859.04,2172.86,107,115,118
412414.16,4265858.46,2173.06,77,91,91
412412.91,4265857.88,2172.88,38,50,50
412410.39,4265856.70,2172.88,22,35,44
412396.69,4265850.25,2172.86,2,9,28
412395.45,4265849.67,2172.88,3,11,30
412394.18,4265849.07,2172.86,3,16,32
412392.93,4265848.48,2172.90,14,27,36
412391.69,4265847.90,2172.96,24,37,45
412390.44,4265847.31,2172.94,13,20,28
412389.20,4265846.71,2173.03,34,39,45
412387.98,4265846.15,2173.23,107,111,114
412386.73,4265845.56,2173.19,73,77,78
412385.45,4265844.96,2173.06,102,106,105
412384.19,4265844.36,2172.86,150,149,155
412382.96,4265843.79,2172.88,135,135,143
412381.71,4265843.20,2172.90,132,135,144
412380.45,4265842.59,2172.94,134,141,151
412379.20,4265842.02,2172.96,139,145,157
412377.96,4265841.42,2173.02,132,138,150
412376.69,4265840.84,2173.08,116,115,129
412375.45,4265840.25,2173.02,77,79,91
412374.19,4265839.66,2173.00,79,83,94
412372.93,4265839.06,2173.01,74,80,92
412371.69,4265838.48,2173.03,76,86,96
412370.45,4265837.90,2173.06,63,73,83
412369.20,4265837.31,2173.02,76,99,89
412365.45,4265835.54,2173.21,75,84,99
412364.20,4265834.95,2173.22,73,82,97
412361.68,4265833.77,2173.29,70,82,96
412360.43,4265833.17,2173.30,69,81,95
412359.20,4265832.59,2173.30,73,82,99
412357.95,4265832.00,2173.31,70,79,96
412356.70,4265831.42,2173.36,72,80,99
412355.11,4265831.31,2173.36,73,82,99
412356.35,4265831.90,2173.35,73,81,100
412357.61,4265832.49,2173.32,71,80,97
412358.88,4265833.09,2173.27,72,81,98
412360.12,4265833.67,2173.26,67,79,93
412361.37,4265834.27,2173.23,70,82,96
412363.86,4265835.45,2173.15,71,80,95
412365.11,4265836.04,2173.15,79,97,99
412370.09,4265838.38,2173.03,105,140,110
412371.34,4265838.98,2173.03,76,84,95
412372.58,4265839.56,2173.02,69,76,86
412373.82,4265840.15,2173.04,81,85,94
412375.08,4265840.75,2173.08,106,109,118
412376.33,4265841.34,2173.10,131,131,141
412377.58,4265841.92,2173.01,129,127,141
412378.83,4265842.52,2172.97,134,141,151
412380.09,4265843.11,2172.92,144,147,162
412381.34,4265843.70,2172.90,143,145,157
412382.57,4265844.28,2172.90,66,66,76
412383.81,4265844.87,2172.90,46,45,51
412385.06,4265845.46,2173.00,86,81,88
412386.33,4265846.06,2173.19,118,127,126
412387.62,4265846.67,2173.21,86,91,94
412388.85,4265847.25,2173.05,87,92,98
412391.30,4265848.41,2173.00,26,36,45
412392.55,4265849.00,2172.90,19,32,41
412393.80,4265849.59,2172.83,1,14,30
412395.05,4265850.17,2172.85,4,12,31
412396.29,4265850.75,2172.84,5,17,33
412402.54,4265853.71,2172.90,3,21,45
412405.01,4265854.88,2172.86,3,20,36
412409.97,4265857.21,2172.88,152,165,174
412416.17,4265860.15,2172.81,100,111,97
412417.41,4265860.74,2172.78,70,87,69
412419.89,4265861.90,2172.63,62,85,69
412418.65,4265861.32,2172.72,65,86,69
412421.12,4265862.48,2172.56,62,83,68
412422.36,4265863.07,2172.46,56,74,60
412423.60,4265863.66,2172.44,104,106,101
412424.87,4265864.25,2172.88,126,131,127
412426.08,4265864.82,2172.34,25,40,37
412428.54,4265865.99,2172.26,2,19,26
412431.32,4265867.31,2176.35,167,148,154
412432.58,4265867.91,2176.47,148,121,128
412433.83,4265868.50,2176.59,154,123,129
412435.05,4265869.07,2176.74,160,127,134
412436.28,4265869.65,2176.75,159,130,135
412437.52,4265870.24,2176.59,150,125,131
412438.75,4265870.82,2176.53,164,137,144
412439.97,4265871.40,2176.36,165,138,145
412441.19,4265871.96,2176.23,155,128,135
412442.40,4265872.54,2176.11,158,127,133
412443.64,4265873.13,2175.98,141,111,119
412445.90,4265874.17,2172.24,22,31,40
412447.14,4265874.77,2172.21,7,21,32
412448.39,4265875.36,2172.22,3,21,35
412449.63,4265875.94,2172.19,4,17,33
412450.86,4265876.52,2172.19,78,82,94
412452.29,4265877.21,2175.86,172,170,175
412453.51,4265877.78,2175.69,183,182,188
412454.76,4265878.37,2175.55,173,174,179
412455.97,4265878.94,2175.38,174,175,180
412457.19,4265879.52,2175.19,174,173,178
412463.22,4265882.36,2172.06,83,95,93
412464.48,4265882.95,2172.03,31,45,45
412465.70,4265883.52,2172.03,53,69,69
412465.95,4265884.62,2171.97,16,37,30
412464.73,4265884.05,2172.00,48,68,59
412463.49,4265883.46,2171.97,57,74,66
412462.25,4265882.88,2171.99,50,67,59
412461.00,4265882.29,2171.92,202,217,212
412459.75,4265881.71,2171.90,160,169,168
412458.51,4265881.12,2172.04,188,194,194
412457.28,4265880.54,2172.08,183,187,188
412454.96,4265879.46,2175.06,181,184,189
412453.72,4265878.88,2175.25,176,177,182
412452.49,4265878.30,2175.40,176,175,180
412451.27,4265877.73,2175.58,183,183,191
412449.85,4265877.05,2172.21,13,22,37
412448.59,4265876.46,2172.22,6,19,35
412447.35,4265875.88,2172.23,7,21,30
412446.12,4265875.30,2172.23,15,25,34
412443.85,4265874.25,2175.65,147,122,128
412441.37,4265873.08,2175.88,146,119,124
412442.61,4265873.66,2175.77,157,124,133
412438.91,4265871.92,2176.13,60,33,40
412440.16,4265872.50,2176.02,146,126,127
412437.68,4265871.34,2176.26,152,131,136
412436.47,4265870.77,2176.48,149,124,128
412435.25,4265870.20,2176.71,154,123,129
412434.01,4265869.62,2176.63,164,131,138
412432.79,4265869.04,2176.76,167,138,143
412431.54,4265868.46,2176.73,154,129,135
412429.99,4265867.71,2172.33,85,96,92
412428.73,4265867.12,2172.33,29,47,49
412425.00,4265865.37,2172.44,134,145,141
412423.76,4265864.78,2172.51,31,36,30
412422.51,4265864.20,2172.40,84,105,90
412421.28,4265863.62,2172.54,69,91,78
412420.05,4265863.04,2172.53,62,84,71
412418.81,4265862.46,2172.71,67,90,74
412417.57,4265861.87,2172.75,70,87,69
412414.11,4265860.25,2176.17,62,61,67
412405.10,4265856.00,2172.94,15,27,39
412403.86,4265855.42,2172.94,12,25,41
412402.62,4265854.84,2172.96,16,34,56
412395.14,4265851.32,2172.86,2,11,28
412396.39,4265851.91,2172.84,1,12,30
412393.89,4265850.74,2172.82,4,15,33
412391.39,4265849.56,2172.94,51,59,70
412390.16,4265848.98,2172.90,77,84,94
412388.92,4265848.40,2172.94,82,87,93
412387.69,4265847.82,2173.15,65,73,76
412386.48,4265847.25,2173.42,153,163,164
412385.19,4265846.63,2173.06,92,89,96
412383.91,4265846.04,2172.86,141,138,145
412382.67,4265845.46,2172.88,90,89,97
412381.41,4265844.86,2172.90,134,136,148
412380.16,4265844.28,2172.96,139,143,155
412378.90,4265843.67,2172.99,146,149,164
412376.44,4265842.52,2173.10,179,177,188
412377.66,4265843.09,2173.05,147,145,159
412375.19,4265841.94,2173.13,174,175,180
412373.92,4265841.34,2173.15,145,149,152
412372.67,4265840.75,2173.17,134,139,145
412371.44,4265840.17,2173.17,93,100,108
412368.94,4265839.00,2173.09,80,120,86
412370.18,4265839.58,2173.11,81,117,89
412367.67,4265838.40,2173.07,79,113,86
412363.89,4265836.62,2173.10,56,79,73
412360.14,4265834.86,2173.25,69,81,95
412358.90,4265834.27,2173.26,69,81,97
412357.65,4265833.67,2173.29,74,86,102
412356.40,4265833.09,2173.31,76,84,103
412355.14,4265832.50,2173.35,74,83,100
412353.89,4265831.92,2173.36,72,81,98
412352.64,4265831.33,2173.40,75,84,101
412352.14,4265831.75,2173.36,75,84,101
412354.62,4265832.92,2173.34,67,76,91
412353.38,4265832.34,2173.35,69,78,95
412355.90,4265833.53,2173.28,73,84,102
412357.18,4265834.13,2173.27,70,81,99
412358.42,4265834.71,2173.26,68,80,96
412359.65,4265835.31,2173.17,68,80,94
412360.90,4265835.88,2173.15,66,76,88
412367.18,4265838.86,2173.13,37,77,43
412368.42,4265839.44,2173.19,64,105,71
412373.41,4265841.80,2173.23,189,193,196
412374.64,4265842.38,2173.15,171,172,176
412375.89,4265842.96,2173.09,200,199,207
412379.61,4265844.73,2172.97,138,144,156
412377.12,4265843.56,2173.03,151,148,159
412380.88,4265845.33,2172.92,137,141,152
412378.36,4265844.13,2172.98,135,141,155
412382.12,4265845.91,2172.86,112,112,122
412383.41,4265846.52,2173.11,82,81,89
412384.63,4265847.09,2172.94,88,87,93
412385.89,4265847.69,2173.13,54,64,63
412387.14,4265848.28,2173.13,104,112,114
412388.36,4265848.86,2172.97,87,90,97
412389.59,4265849.44,2172.92,75,78,87
412392.12,4265850.63,2172.92,3,15,27
412390.86,4265850.04,2172.92,4,11,21
412393.34,4265851.21,2172.83,1,12,30
412394.58,4265851.80,2172.82,3,14,32
412395.83,4265852.38,2172.82,3,14,32
412397.05,4265852.96,2172.84,2,13,33
412402.04,4265855.32,2172.92,20,37,57
412403.29,4265855.91,2172.94,22,35,51
412404.54,4265856.50,2172.94,53,65,77
412409.79,4265858.98,2175.97,184,185,189
412411.03,4265859.57,2176.11,118,115,122
412412.30,4265860.17,2176.25,82,79,86
412413.56,4265860.77,2176.42,130,125,132
412414.79,4265861.34,2176.57,117,112,119
412418.20,4265862.94,2172.69,59,80,61
412420.67,4265864.11,2172.57,52,76,63
412421.90,4265864.69,2172.48,93,116,100
412423.15,4265865.28,2172.52,85,109,95
412424.41,4265865.87,2172.84,54,71,61
412428.08,4265867.61,2172.31,35,64,59
412429.32,4265868.19,2172.32,103,120,112
412432.12,4265869.52,2176.57,153,127,130
412433.34,4265870.09,2176.44,160,131,135
412435.83,4265871.28,2176.65,160,135,139
412434.57,4265870.67,2176.50,162,131,136
412437.06,4265871.86,2176.26,138,117,122
412438.26,4265872.42,2175.94,129,98,103
412439.48,4265873.00,2175.82,156,130,133
412440.71,4265873.58,2175.69,149,129,130
412441.94,4265874.16,2175.58,155,124,130
412443.16,4265874.73,2175.42,156,125,133
412445.44,4265875.80,2172.24,41,35,37
412446.67,4265876.38,2172.25,9,22,30
412447.91,4265876.96,2172.22,2,14,26
412449.15,4265877.55,2172.25,4,16,32
412450.39,4265878.13,2172.22,40,44,56
412454.11,4265879.88,2172.11,181,182,186
412455.33,4265880.46,2172.06,174,178,181
412456.57,4265881.04,2172.04,163,172,171
412457.81,4265881.63,2172.01,73,83,82
412459.05,4265882.21,2171.96,93,105,101
412460.29,4265882.80,2171.94,208,225,217
412461.52,4265883.38,2171.94,53,70,62
412462.76,4265883.96,2171.92,42,62,51
412463.99,4265884.55,2171.92,51,73,61
412465.22,4265885.13,2171.94,53,80,65
412466.44,4265885.70,2171.86,63,86,76
412467.67,4265886.28,2171.83,64,87,77
412468.08,4265887.38,2171.82,63,84,67
412466.82,4265886.80,2171.83,46,72,59
412465.58,4265886.21,2171.86,56,85,67
412464.37,4265885.65,2171.88,47,74,55
412463.14,4265885.06,2171.88,54,77,61
412461.88,4265884.46,2171.88,58,75,65
412460.62,4265883.88,2171.90,118,138,127
412459.38,4265883.30,2171.94,161,181,172
412458.17,4265882.73,2171.96,36,53,47
412456.95,4265882.16,2171.98,31,46,41
412455.70,4265881.57,2172.02,36,48,46
412454.43,4265880.98,2172.06,72,82,81
412453.20,4265880.40,2172.11,181,185,188
412451.97,4265879.82,2172.19,171,185,185
412449.49,4265878.65,2172.29,18,25,41
412448.24,4265878.06,2172.28,3,15,29
412447.01,4265877.49,2172.23,9,22,28
412445.79,4265876.91,2172.25,26,37,41
412444.53,4265876.32,2172.25,124,112,116
412442.23,4265875.25,2175.21,153,122,130
412440.99,4265874.67,2175.35,150,125,129
412439.75,4265874.09,2175.46,148,123,126
412438.53,4265873.50,2175.67,156,125,130
412437.33,4265872.95,2176.08,144,121,129
412436.12,4265872.38,2176.51,194,164,172
412434.89,4265871.80,2176.67,112,85,90
412432.39,4265870.63,2176.19,141,115,116
412433.63,4265871.21,2176.25,151,122,126
412429.63,4265869.31,2172.30,15,36,21
412428.39,4265868.73,2172.32,59,93,77
412427.15,4265868.15,2172.28,19,50,42
412425.93,4265867.58,2172.49,81,103,100
412423.43,4265866.40,2172.54,40,66,55
412422.19,4265865.82,2172.42,79,94,91
412420.97,4265865.24,2172.50,27,50,44
412419.72,4265864.65,2172.60,12,39,24
412418.46,4265864.06,2172.69,61,85,69
412415.10,4265862.50,2177.10,113,107,117
412417.21,4265863.48,2172.72,66,85,63
412413.84,4265861.91,2176.90,118,110,121
412412.58,4265861.31,2176.75,121,114,122
412411.30,4265860.71,2176.61,124,114,123
412410.07,4265860.13,2176.46,118,111,119
412408.83,4265859.55,2176.28,123,120,127
412407.60,4265858.96,2176.13,167,165,170
412406.33,4265858.37,2175.96,218,217,222
412401.05,4265855.88,2172.88,14,29,50
412398.54,4265854.70,2172.88,28,43,64
412396.06,4265853.53,2172.85,1,12,30
412393.56,4265852.36,2172.84,2,15,32
412394.81,4265852.94,2172.86,2,13,31
412389.83,4265850.59,2172.92,5,14,29
412392.31,4265851.77,2172.88,2,14,28
412387.34,4265849.42,2172.90,116,121,125
412391.08,4265851.19,2172.94,6,15,30
412384.81,4265848.24,2172.90,71,78,84
412388.59,4265850.02,2172.90,50,53,60
412382.35,4265847.08,2172.86,125,125,133
412386.08,4265848.84,2173.01,206,214,216
412381.10,4265846.49,2172.88,127,131,140
412383.58,4265847.66,2172.84,103,103,111
412379.83,4265845.90,2172.92,139,146,156
412378.57,4265845.30,2173.01,142,150,163
412377.33,4265844.71,2173.05,141,145,154
412376.09,4265844.13,2173.05,137,137,147
412374.82,4265843.54,2173.11,182,182,192
412362.32,4265837.66,2173.25,35,51,51
412361.05,4265837.06,2173.15,88,101,109
412358.57,4265835.88,2173.22,68,80,96
412357.31,4265835.30,2173.28,69,81,97
412356.03,4265834.70,2173.26,69,80,98
412354.77,4265834.11,2173.28,77,86,101
412353.52,4265833.52,2173.31,81,90,105
412352.28,4265832.92,2173.35,85,94,109
412354.13,4265834.38,2173.30,82,91,106
412352.89,4265833.81,2173.31,73,82,97
412355.40,4265834.99,2173.25,77,88,106
412356.65,4265835.58,2173.23,77,88,106
412357.90,4265836.17,2173.22,78,89,107
412359.16,4265836.75,2173.21,64,75,93
412362.93,4265838.54,2173.29,25,53,38
412374.19,4265843.86,2173.11,183,183,193
412375.43,4265844.45,2173.06,142,140,151
412376.66,4265845.02,2173.02,146,153,161
412377.90,4265845.61,2173.00,136,151,156
412379.17,4265846.21,2172.94,138,147,156
412380.41,4265846.80,2172.96,129,133,142
412381.66,4265847.38,2172.88,130,133,140
412382.94,4265847.99,2173.31,84,87,94
412384.13,4265848.55,2172.81,73,80,86
412385.38,4265849.13,2172.86,64,78,81
412386.64,4265849.73,2172.86,102,107,111
412387.91,4265850.33,2172.86,53,56,63
412390.40,4265851.50,2172.90,4,13,28
412391.62,4265852.08,2172.90,2,14,28
412392.87,4265852.67,2172.85,2,14,30
412395.36,4265853.84,2172.84,1,12,30
412397.84,4265855.02,2172.86,20,33,52
412399.10,4265855.61,2172.88,48,65,81
412400.35,4265856.20,2172.94,9,27,39
412404.36,4265858.09,2175.97,172,173,178
412405.61,4265858.70,2176.13,115,114,120
412406.88,4265859.30,2176.30,110,105,111
412408.13,4265859.88,2176.42,112,107,114
412409.36,4265860.46,2176.63,117,107,116
412410.61,4265861.06,2176.80,125,113,123
412411.88,4265861.65,2176.90,118,108,119
412413.15,4265862.25,2177.07,119,111,122
412414.40,4265862.84,2177.25,117,114,123
412417.74,4265864.41,2172.67,64,88,66
412418.99,4265864.99,2172.63,61,88,73
412420.22,4265865.57,2172.52,1,31,21
412421.46,4265866.16,2172.46,26,47,42
412425.21,4265867.92,2172.42,31,53,50
412428.90,4265869.67,2172.25,65,94,76
412431.64,4265870.96,2176.07,147,123,123
412435.39,4265872.74,2176.74,173,142,150
412432.87,4265871.55,2175.99,155,129,130
412436.59,4265873.31,2176.36,175,148,155
412434.14,4265872.15,2176.42,133,104,108
412439.03,4265874.46,2175.48,150,119,124
412437.84,4265873.88,2175.88,165,142,150
412440.23,4265875.02,2175.21,151,129,132
412441.48,4265875.61,2175.09,148,121,128
412445.01,4265877.25,2172.24,72,70,73
412446.24,4265877.84,2172.25,2,16,19
412447.47,4265878.42,2172.24,11,24,32
412451.17,4265880.17,2172.17,149,163,163
412452.41,4265880.75,2172.11,93,108,105
412453.65,4265881.34,2172.04,65,75,74
412454.89,4265881.92,2171.98,49,66,60
412456.12,4265882.50,2171.97,44,63,57
412457.35,4265883.08,2171.94,51,71,62
412459.86,4265884.25,2171.88,48,65,55
412458.60,4265883.67,2171.92,24,44,35
412461.09,4265884.84,2171.85,64,80,70
412462.33,4265885.42,2171.86,95,113,101
412463.55,4265886.00,2171.85,49,74,55
412464.77,4265886.58,2171.85,50,79,59
412466.02,4265887.17,2171.82,47,72,53
412467.26,4265887.75,2171.83,66,89,71
412468.01,4265889.12,2171.81,80,101,84
412466.77,4265888.54,2171.81,71,94,76
412465.53,4265887.96,2171.83,54,79,60
412464.31,4265887.38,2171.84,50,75,56
412463.08,4265886.81,2171.83,59,82,64
412461.82,4265886.21,2171.84,95,111,100
412460.56,4265885.62,2171.83,58,70,60
412459.32,4265885.04,2171.86,67,83,73
412458.11,4265884.46,2171.90,27,47,36
412456.88,4265883.88,2171.92,48,70,58
412455.62,4265883.30,2171.92,50,71,62
412454.38,4265882.71,2171.97,52,71,65
412453.16,4265882.13,2172.00,65,82,76
412451.95,4265881.58,2172.07,72,92,83
412450.71,4265880.99,2172.19,51,70,66
412448.22,4265879.83,2172.78,5,20,23
412446.95,4265879.23,2172.29,13,26,32
412444.49,4265878.07,2172.23,181,181,183
412439.71,4265875.84,2175.15,148,121,126
412438.48,4265875.25,2175.57,177,142,149
412437.27,4265874.69,2176.01,178,153,159
412434.84,4265873.55,2176.76,129,98,106
412436.06,4265874.12,2176.44,172,142,150
412433.60,4265872.96,2176.29,112,83,87
412432.33,4265872.37,2175.85,148,133,130
412424.63,4265868.74,2172.40,11,38,33
412423.39,4265868.15,2172.49,5,36,30
412420.91,4265866.99,2172.50,23,50,43
412418.42,4265865.82,2172.67,50,77,68
412417.18,4265865.24,2172.71,79,96,88
412415.11,4265864.29,2177.86,65,68,77
412412.58,4265863.09,2177.48,113,107,117
412413.84,4265863.69,2177.63,117,116,124
412411.33,4265862.50,2177.36,127,117,128
412410.07,4265861.91,2177.17,131,117,130
412408.83,4265861.33,2177.04,122,109,119
412407.56,4265860.73,2176.86,126,116,125
412406.30,4265860.13,2176.72,124,117,125
412405.06,4265859.55,2176.56,105,102,109
412403.82,4265858.96,2176.38,102,101,107
412402.57,4265858.38,2176.25,120,123,130
412401.30,4265857.78,2176.07,71,74,81
412398.52,4265856.46,2173.04,109,123,136
412397.26,4265855.87,2172.81,3,14,32
412396.02,4265855.29,2172.82,3,15,31
412394.75,4265854.69,2172.85,4,21,31
412392.26,4265853.52,2172.86,3,15,31
412391.03,4265852.94,2172.92,1,13,29
412389.78,4265852.36,2172.92,2,14,30
412388.52,4265851.75,2172.90,12,21,38
412387.26,4265851.17,2172.84,3,11,32
412386.01,4265850.58,2172.86,26,34,55
412384.76,4265849.99,2172.82,74,88,91
412383.52,4265849.41,2172.82,100,109,114
412382.31,4265848.84,2173.06,27,32,36
412381.03,4265848.24,2172.86,161,161,169
412379.76,4265847.63,2172.94,131,134,143
412378.53,4265847.06,2172.97,142,149,157
412377.29,4265846.48,2172.98,121,139,143
412376.03,4265845.88,2173.02,128,126,137
412374.79,4265845.30,2173.10,149,141,154
412361.04,4265838.84,2173.38,11,36,32
412358.53,4265837.66,2173.21,10,23,42
412357.28,4265837.07,2173.24,6,19,36
412356.01,4265836.46,2173.24,36,48,64
412354.74,4265835.88,2173.27,89,99,111
412353.48,4265835.29,2173.26,86,96,108
412352.26,4265834.71,2173.28,70,79,94
412352.56,4265835.38,2173.26,63,73,85
412353.82,4265835.99,2173.26,41,49,68
412355.09,4265836.59,2173.25,38,42,69
412357.60,4265837.77,2173.24,12,27,46
412358.84,4265838.34,2173.26,8,25,41
412360.09,4265838.95,2173.32,7,27,34
412373.83,4265845.42,2173.10,178,172,184
412376.33,4265846.61,2173.03,136,143,151
412375.08,4265846.00,2173.05,132,121,135
412377.58,4265847.20,2172.97,126,147,150
412378.82,4265847.78,2172.94,127,127,135
412380.07,4265848.37,2172.90,120,119,127
412381.32,4265848.96,2172.86,127,128,133
412382.58,4265849.55,2173.05,68,73,77
412383.79,4265850.12,2172.81,102,116,119
412385.04,4265850.71,2172.81,43,48,70
412386.28,4265851.30,2172.82,11,19,40
412387.56,4265851.90,2172.83,3,12,29
412388.84,4265852.50,2172.90,1,10,25
412390.07,4265853.08,2172.92,2,14,28
412391.31,4265853.67,2172.92,2,14,30
412395.04,4265855.42,2172.82,7,21,32
412397.53,4265856.59,2172.80,13,25,39
412400.34,4265857.94,2176.19,168,176,179
412401.61,4265858.54,2176.36,97,100,107
412402.86,4265859.13,2176.52,111,111,119
412404.11,4265859.71,2176.67,121,118,127
412406.62,4265860.90,2176.97,119,109,118
412405.37,4265860.31,2176.82,121,114,122
412407.87,4265861.49,2177.13,123,111,121
412409.11,4265862.08,2177.30,124,108,121
412411.62,4265863.25,2177.60,119,113,123
412412.85,4265863.84,2177.77,87,85,96
412414.12,4265864.44,2177.94,17,20,29
412417.42,4265865.98,2172.65,35,55,46
412421.16,4265867.74,2172.40,46,76,68
412432.54,4265873.12,2175.94,128,108,109
412433.81,4265873.71,2176.42,110,83,88
412435.09,4265874.32,2176.76,151,121,129
412436.30,4265874.90,2176.35,156,129,136
412437.51,4265875.46,2175.90,177,152,158
412438.72,4265876.03,2175.49,172,141,147
412439.91,4265876.59,2175.05,163,140,146
412444.69,4265878.83,2172.23,161,165,166
412445.93,4265879.42,2172.23,15,29,32
412447.17,4265880.00,2172.34,22,40,42
412448.44,4265880.59,2172.90,48,66,66
412453.35,4265882.91,2171.99,58,81,71
412454.57,4265883.49,2171.94,50,73,63
412455.80,4265884.07,2171.92,52,74,62
412457.05,4265884.66,2171.90,62,79,69
412458.28,4265885.24,2171.86,71,87,76
412459.50,4265885.81,2171.84,58,70,60
412460.73,4265886.38,2171.83,55,67,57
412461.98,4265886.98,2171.82,76,93,77
412463.21,4265887.56,2171.84,67,88,71
412464.45,4265888.13,2171.84,52,77,58
412465.70,4265888.73,2171.82,59,84,65
412466.94,4265889.32,2171.81,71,94,76
412468.16,4265889.88,2171.79,63,84,67
412467.16,4265890.41,2171.80,77,100,82
412465.94,4265889.84,2171.82,57,82,63
412463.55,4265888.71,2171.83,72,97,78
412464.74,4265889.28,2171.82,63,90,71
412462.33,4265888.13,2171.81,60,78,62
412461.09,4265887.56,2171.81,79,93,78
412459.86,4265886.99,2171.82,82,96,83
412458.65,4265886.42,2171.84,62,74,64
412457.45,4265885.84,2171.88,55,68,58
412456.23,4265885.28,2171.88,68,86,74
412455.00,4265884.70,2171.90,50,70,59
412453.77,4265884.13,2171.96,53,77,64
412452.56,4265883.56,2172.00,53,75,62
412447.75,4265881.30,2172.72,25,45,43
412446.50,4265880.71,2172.19,31,51,50
412445.29,4265880.15,2172.25,21,31,33
412444.07,4265879.58,2172.26,184,182,185
412442.88,4265879.00,2172.21,176,163,170
412439.39,4265877.38,2175.17,175,152,158
412438.23,4265876.84,2175.57,181,148,155
412437.05,4265876.30,2176.00,177,152,158
412435.86,4265875.74,2176.44,191,166,172
412434.65,4265875.17,2176.75,115,92,98
412433.41,4265874.59,2176.32,106,87,89
412432.19,4265874.00,2175.88,98,87,85
412430.94,4265873.42,2175.50,148,143,137
412420.98,4265868.73,2172.40,13,44,38
412411.66,4265864.38,2178.07,114,111,122
412407.98,4265862.65,2177.61,124,112,124
412406.74,4265862.06,2177.48,123,111,123
412405.51,4265861.49,2177.32,122,112,123
412404.27,4265860.90,2177.17,124,116,127
412403.03,4265860.32,2177.02,120,114,124
412401.80,4265859.74,2176.86,120,118,129
412400.56,4265859.16,2176.69,111,114,123
412399.32,4265858.57,2176.54,99,103,112
412398.07,4265857.99,2176.40,143,149,163
412396.52,4265857.24,2172.79,90,103,112
412395.30,4265856.67,2172.80,38,56,58
412394.07,4265856.09,2172.82,32,52,51
412392.85,4265855.52,2172.85,13,27,28
412391.64,4265854.95,2172.88,14,27,35
412387.92,4265853.21,2172.86,15,25,37
412386.68,4265852.62,2172.81,12,19,35
412385.44,4265852.04,2172.80,14,15,33
412384.21,4265851.46,2172.79,12,21,36
412382.98,4265850.88,2172.82,104,121,128
412381.75,4265850.31,2172.94,48,51,56
412380.51,4265849.73,2172.86,167,164,171
412379.26,4265849.13,2172.92,124,121,128
412378.04,4265848.56,2172.96,137,136,144
412376.82,4265847.99,2172.99,129,142,148
412375.59,4265847.41,2173.01,132,130,141
412374.33,4265846.82,2173.08,136,124,138
412359.44,4265839.82,2173.29,17,41,51
412358.18,4265839.23,2173.22,18,39,58
412356.97,4265838.66,2173.28,9,26,46
412355.73,4265838.08,2173.24,9,24,43
412354.46,4265837.49,2173.28,56,69,88
412353.20,4265836.88,2173.30,44,61,69
412352.47,4265837.13,2173.33,52,75,69
412353.71,4265837.71,2173.26,14,30,43
412356.22,4265838.90,2173.24,4,22,44
412354.96,4265838.31,2173.24,12,27,56
412357.47,4265839.49,2173.25,8,26,48
412358.72,4265840.08,2173.25,13,37,49
412373.70,4265847.13,2173.08,146,140,152
412374.94,4265847.73,2173.03,126,120,132
412376.20,4265848.32,2173.00,137,146,153
412377.43,4265848.90,2172.96,134,143,150
412378.68,4265849.49,2172.90,133,126,134
412379.94,4265850.08,2172.90,162,157,164
412381.16,4265850.66,2172.82,150,143,150
412382.42,4265851.25,2172.84,55,69,72
412383.67,4265851.84,2172.82,5,17,29
412384.92,4265852.42,2172.81,12,14,27
412386.16,4265853.02,2172.80,16,22,36
412387.43,4265853.62,2172.82,24,32,43
412388.69,4265854.21,2172.88,31,44,50
412389.94,4265854.80,2173.24,33,51,53
412391.15,4265855.37,2172.90,74,90,90
412392.41,4265855.96,2172.85,32,47,42
412393.67,4265856.55,2172.82,55,78,72
412394.91,4265857.13,2172.77,52,70,72
412396.13,4265857.71,2172.76,62,75,83
412397.37,4265858.30,2172.75,72,78,94
412398.99,4265859.08,2176.74,113,117,128
412397.72,4265858.48,2176.60,125,131,145
412400.25,4265859.67,2176.90,112,112,122
412401.50,4265860.25,2177.07,119,116,127
412403.99,4265861.44,2177.36,114,106,117
412402.74,4265860.84,2177.21,123,117,129
412405.25,4265862.03,2177.53,125,115,126
412406.50,4265862.62,2177.69,120,110,121
412407.75,4265863.21,2177.83,126,116,127
412417.28,4265867.67,2172.67,9,31,28
412418.52,4265868.25,2172.57,58,87,83
412431.14,4265874.21,2175.50,102,101,96
412432.40,4265874.82,2175.94,103,98,95
412433.66,4265875.41,2176.40,108,92,95
412434.92,4265876.00,2176.74,173,150,156
412437.34,4265877.13,2175.90,172,147,153
412436.13,4265876.58,2176.32,173,148,154
412438.56,4265877.71,2175.46,177,147,155
412442.06,4265879.34,2172.21,158,146,150
412444.54,4265880.52,2172.21,43,51,54
412443.30,4265879.92,2172.23,167,172,175
412447.00,4265881.67,2172.27,56,78,75
412445.75,4265881.09,2172.19,9,31,29
412449.53,4265882.87,2172.53,68,92,79
412450.74,4265883.44,2172.09,64,88,75
412451.97,4265884.02,2171.98,54,76,63
412453.21,4265884.59,2171.94,56,78,66
412454.43,4265885.17,2171.92,54,72,60
412455.66,4265885.75,2171.86,68,84,73
412456.91,4265886.34,2171.86,78,91,81
412458.14,4265886.92,2171.86,67,79,69
412459.37,4265887.50,2171.82,63,79,66
412460.61,4265888.09,2171.81,64,78,65
412461.86,4265888.67,2171.96,64,81,65
412463.09,4265889.25,2171.92,64,87,69
412464.31,4265889.83,2171.79,52,79,60
412465.56,4265890.42,2171.79,64,89,70
412468.04,4265891.59,2171.80,71,89,73
412466.80,4265891.00,2171.79,66,89,71
412468.16,4265892.61,2172.03,63,81,65
412466.91,4265892.02,2171.78,65,86,69
412465.65,4265891.42,2171.79,60,87,68
412464.40,4265890.84,2171.92,67,94,75
412463.17,4265890.27,2171.92,74,99,80
412461.98,4265889.71,2172.11,79,100,83
412460.72,4265889.12,2172.05,72,89,73
412459.46,4265888.52,2171.92,68,84,71
412458.21,4265887.94,2171.84,61,79,67
412456.98,4265887.36,2171.86,63,79,68
412450.78,4265884.45,2172.07,66,88,76
412452.02,4265885.03,2171.94,45,65,54
412449.56,4265883.88,2172.33,63,87,74
412448.35,4265883.31,2172.56,40,66,55
412447.10,4265882.71,2172.31,6,32,23
412445.84,4265882.13,2172.15,4,29,23
412444.61,4265881.55,2172.19,27,47,45
412443.36,4265880.96,2172.19,20,30,31
412442.12,4265880.38,2172.19,179,180,182
412440.88,4265879.80,2172.22,167,158,161
412438.60,4265878.75,2175.38,176,151,157
412437.38,4265878.17,2175.79,172,147,153
412436.17,4265877.61,2176.23,176,153,159
412434.96,4265877.05,2176.63,180,159,164
412433.71,4265876.46,2176.53,107,92,95
412432.44,4265875.86,2176.06,97,91,91
412431.17,4265875.25,2175.61,113,114,109
412427.19,4265873.38,2172.29,76,115,96
412418.52,4265869.31,2172.50,6,31,35
412417.29,4265868.73,2172.63,15,36,39
412413.90,4265867.16,2177.17,6,22,37
412412.68,4265866.59,2177.30,31,39,62
412411.46,4265866.00,2177.47,64,66,87
412410.21,4265865.42,2177.61,119,117,131
412408.97,4265864.84,2177.76,131,125,137
412406.53,4265863.70,2178.07,120,112,123
412405.28,4265863.11,2177.97,121,113,126
412404.01,4265862.52,2177.86,122,114,127
412398.98,4265860.15,2177.17,112,111,125
412393.62,4265857.62,2172.79,5,28,18
412392.36,4265857.02,2172.74,56,73,55
412391.11,4265856.44,2172.88,71,91,80
412389.87,4265855.84,2172.90,81,102,95
412388.61,4265855.25,2172.92,60,76,73
412387.36,4265854.67,2172.86,87,92,95
412386.13,4265854.09,2172.83,90,94,103
412384.88,4265853.50,2172.82,94,95,100
412383.63,4265852.92,2172.86,88,97,102
412382.40,4265852.34,2172.86,16,27,29
412381.16,4265851.75,2172.83,122,115,122
412379.89,4265851.17,2172.88,173,157,167
412378.62,4265850.57,2172.88,164,150,163
412377.37,4265849.98,2172.96,133,136,145
412376.13,4265849.40,2173.02,137,146,153
412374.90,4265848.82,2173.02,130,139,146
412373.66,4265848.24,2173.06,109,109,119
412361.14,4265842.36,2173.31,83,113,105
412358.63,4265841.17,2173.28,32,54,68
412357.36,4265840.59,2173.28,6,24,44
412356.11,4265840.00,2173.27,2,20,44
412354.88,4265839.42,2173.25,8,30,53
412352.33,4265838.21,2173.36,67,99,76
412353.62,4265838.83,2173.29,14,39,43
412352.36,4265838.81,2173.35,101,141,104
412353.60,4265839.38,2173.28,3,31,32
412357.38,4265841.17,2173.24,6,25,42
412356.15,4265840.59,2173.24,8,26,48
412358.62,4265841.75,2173.27,12,31,45
412373.63,4265848.83,2173.01,123,132,139
412374.88,4265849.41,2173.00,127,140,146
412376.12,4265850.00,2172.97,137,144,152
412377.35,4265850.58,2172.92,129,132,141
412378.60,4265851.17,2172.92,168,154,167
412379.84,4265851.75,2172.84,143,126,136
412381.10,4265852.34,2172.80,140,131,136
412382.36,4265852.94,2172.84,98,106,108
412383.60,4265853.53,2172.84,92,102,103
412384.87,4265854.12,2172.81,112,111,116
412386.10,4265854.70,2172.83,105,106,110
412388.61,4265855.88,2173.07,12,29,23
412387.35,4265855.29,2172.84,79,85,85
412389.86,4265856.46,2173.19,59,81,69
412398.94,4265860.77,2176.96,111,109,123
412400.18,4265861.34,2176.80,107,105,119
412403.99,4265863.15,2178.07,119,111,124
412406.47,4265864.32,2177.80,113,107,119
412407.68,4265864.88,2177.65,115,109,119
412408.88,4265865.45,2177.49,112,110,115
412410.10,4265866.03,2177.36,113,112,126
412412.60,4265867.20,2177.03,36,47,69
412415.99,4265868.78,2172.67,12,30,34
412417.23,4265869.37,2172.61,5,24,31
412418.46,4265869.94,2172.54,3,26,32
412419.69,4265870.52,2172.48,10,34,36
412425.89,4265873.45,2172.34,46,80,64
412427.14,4265874.03,2172.30,73,114,96
412432.34,4265876.50,2176.05,103,97,97
412431.09,4265875.91,2175.56,71,71,69
412433.59,4265877.09,2176.48,107,90,96
412434.86,4265877.69,2176.69,145,124,131
412436.07,4265878.25,2176.27,175,152,158
412437.28,4265878.82,2175.83,174,152,155
412438.50,4265879.40,2175.40,165,142,148
412440.76,4265880.45,2172.22,169,163,165
412442.00,4265881.03,2172.19,113,117,118
412443.24,4265881.61,2172.17,43,59,56
412444.48,4265882.20,2172.15,28,53,49
412446.96,4265883.36,2172.19,38,64,53
412448.22,4265883.96,2172.57,66,92,81
412449.45,4265884.54,2172.40,70,92,80
412450.67,4265885.11,2172.07,65,85,74
412451.89,4265885.67,2171.94,62,79,71
412456.83,4265888.00,2171.84,63,79,68
412458.09,4265888.59,2172.06,62,80,68
412460.57,4265889.77,2171.94,108,126,112
412459.33,4265889.19,2171.94,71,89,75
412461.82,4265890.36,2172.10,82,103,86
412463.04,4265890.92,2171.86,66,91,72
412464.27,4265891.50,2171.92,57,86,66
412465.51,4265892.09,2171.75,48,75,56
412466.75,4265892.67,2171.76,78,101,83
412467.98,4265893.25,2171.85,48,66,50
412464.80,4265892.65,2171.82,63,92,72
412467.30,4265893.82,2171.75,54,75,58
412463.57,4265892.07,2171.94,56,85,65
412466.04,4265893.23,2171.77,67,92,73
412462.34,4265891.49,2171.86,21,46,27
412461.11,4265890.91,2172.00,67,88,71
412458.64,4265889.75,2171.96,54,74,62
412459.87,4265890.34,2171.88,77,98,83
412457.39,4265889.17,2172.07,58,76,64
412456.15,4265888.59,2171.86,67,83,73
412451.18,4265886.25,2171.99,71,86,79
412449.97,4265885.69,2172.36,147,164,158
412448.75,4265885.12,2172.57,49,70,61
412447.49,4265884.53,2172.42,54,80,69
412446.24,4265883.94,2172.11,49,75,64
412444.98,4265883.34,2172.09,24,55,47
412443.73,4265882.77,2172.10,36,61,55
412442.49,4265882.17,2172.10,27,43,40
412441.27,4265881.61,2172.19,154,155,157
412440.03,4265881.03,2172.23,189,177,181
412437.74,4265879.96,2175.59,185,152,163
412436.55,4265879.41,2176.03,170,147,153
412435.33,4265878.84,2176.44,184,161,169
412434.11,4265878.27,2176.73,94,73,80
412432.83,4265877.67,2176.29,108,93,100
412430.28,4265876.46,2175.40,65,81,71
412431.56,4265877.07,2175.84,103,94,99
412427.57,4265875.17,2172.31,64,104,93
412426.33,4265874.59,2172.33,53,91,78
412425.11,4265874.03,2172.36,56,90,76
412421.40,4265872.29,2172.42,24,51,46
412420.15,4265871.70,2172.44,5,26,29
412418.90,4265871.12,2172.48,1,17,30
412417.68,4265870.54,2172.54,11,27,40
412411.77,4265867.79,2176.75,18,25,51
412410.54,4265867.21,2176.90,38,43,63
412409.31,4265866.63,2177.06,54,54,66
412408.09,4265866.06,2177.35,110,108,113
412405.65,4265864.92,2177.52,110,104,116
412406.87,4265865.49,2177.36,111,110,115
412404.41,4265864.34,2177.71,116,110,122
412399.34,4265861.96,2176.48,117,114,131
412398.11,4265861.38,2176.65,111,110,124
412395.26,4265860.02,2172.74,40,66,57
412394.03,4265859.45,2172.75,42,72,60
412390.28,4265857.67,2172.86,65,90,69
412389.03,4265857.09,2172.88,93,116,100
412387.79,4265856.52,2172.84,27,36,31
412385.29,4265855.34,2172.81,108,104,101
412386.54,4265855.92,2172.84,123,125,124
412384.02,4265854.75,2172.80,99,105,103
412382.76,4265854.16,2172.83,97,107,106
412381.52,4265853.57,2172.83,122,117,121
412380.34,4265853.02,2173.34,163,143,152
412379.04,4265852.41,2172.85,107,90,100
412377.79,4265851.82,2172.90,154,151,160
412376.56,4265851.24,2172.94,119,119,129
412375.31,4265850.66,2173.00,134,136,148
412374.04,4265850.06,2173.01,127,145,149
412372.81,4265849.48,2173.04,118,129,135
412360.30,4265843.61,2173.27,24,48,48
412357.79,4265842.42,2173.27,45,61,77
412355.29,4265841.25,2173.24,1,19,43
412352.77,4265840.08,2173.35,26,62,34
412352.44,4265840.45,2173.35,66,107,67
412353.67,4265841.03,2173.26,5,33,34
412354.91,4265841.61,2173.24,6,23,41
412356.17,4265842.20,2173.23,23,38,57
412357.42,4265842.79,2173.24,45,61,77
412372.45,4265849.87,2173.03,127,140,146
412373.68,4265850.45,2173.01,122,140,144
412374.92,4265851.04,2173.00,133,137,148
412377.45,4265852.21,2172.92,152,146,156
412376.20,4265851.63,2172.92,116,114,125
412381.17,4265853.96,2172.82,161,148,155
412378.68,4265852.80,2172.84,167,150,160
412382.41,4265854.56,2172.82,86,92,92
412379.93,4265853.38,2172.94,158,138,147
412384.92,4265855.74,2172.78,110,111,106
412383.66,4265855.15,2172.80,99,105,103
412386.19,4265856.34,2172.83,110,109,107
412387.42,4265856.92,2172.82,14,24,16
412388.65,4265857.50,2172.83,47,65,51
412389.90,4265858.08,2172.85,58,74,63
412391.15,4265858.67,2172.86,72,89,79
412394.85,4265860.42,2172.73,66,99,80
412396.12,4265861.00,2172.73,5,21,20
412397.70,4265861.78,2176.47,97,99,112
412398.92,4265862.34,2176.31,92,89,106
412400.18,4265862.95,2176.60,12,15,30
412402.77,4265864.17,2177.61,112,108,122
412404.00,4265864.75,2177.47,116,112,126
412405.21,4265865.31,2177.31,112,105,121
412407.68,4265866.48,2177.38,110,111,115
412406.42,4265865.88,2177.17,111,110,116
412408.90,4265867.05,2177.00,37,39,51
412410.14,4265867.63,2176.69,23,28,48
412411.36,4265868.21,2176.54,13,20,46
412412.59,4265868.79,2176.40,7,21,47
412417.27,4265870.96,2172.56,6,19,36
412418.49,4265871.54,2172.48,1,17,30
412419.73,4265872.13,2172.42,3,20,28
412424.68,4265874.46,2172.36,52,85,74
412425.93,4265875.05,2172.32,66,99,92
412427.16,4265875.62,2172.29,23,55,52
412429.86,4265876.91,2175.24,92,98,96
412431.12,4265877.50,2175.67,108,95,102
412432.38,4265878.09,2176.11,106,86,95
412434.89,4265879.28,2176.60,184,161,169
412433.65,4265878.70,2176.57,107,86,95
412436.09,4265879.84,2176.15,176,156,165
412435.85,4265879.71,2172.40,177,154,160
412437.07,4265880.29,2172.34,173,147,158
412438.31,4265880.87,2172.22,175,154,159
412439.55,4265881.46,2172.19,148,133,138
412440.79,4265882.04,2172.19,177,177,177
412442.02,4265882.62,2172.06,37,53,50
412444.50,4265883.78,2172.06,27,58,50
412443.25,4265883.19,2172.05,32,57,51
412445.74,4265884.37,2172.04,16,42,33
412446.98,4265884.95,2172.13,30,53,45
412448.23,4265885.54,2172.58,74,95,88
412449.48,4265886.13,2172.55,61,78,72
412450.71,4265886.71,2172.31,76,91,86
412453.14,4265887.84,2171.94,44,50,46
412455.63,4265889.02,2171.85,74,87,78
412456.88,4265889.61,2172.06,38,56,44
412458.12,4265890.19,2172.13,44,64,52
412459.35,4265890.77,2171.88,57,78,63
412460.58,4265891.34,2172.09,65,86,71
412461.79,4265891.92,2171.85,91,116,97
412463.05,4265892.50,2171.88,55,84,64
412464.32,4265893.11,2171.86,100,132,111
412465.56,4265893.69,2171.74,58,85,66
412466.78,4265894.25,2171.73,63,86,68
412468.01,4265894.84,2171.88,157,154,149
412467.54,4265895.59,2171.79,117,118,113
412466.31,4265895.02,2171.73,58,86,71
412465.07,4265894.44,2171.75,48,87,66
412462.59,4265893.28,2171.86,49,78,58
412463.82,4265893.86,2171.82,35,67,46
412461.36,4265892.70,2171.88,15,40,21
412460.12,4265892.12,2171.94,52,75,59
412458.88,4265891.54,2171.94,37,60,44
412457.63,4265890.96,2172.10,71,93,80
412456.40,4265890.38,2171.99,23,40,30
412455.16,4265889.80,2171.94,66,79,70
412453.90,4265889.20,2171.86,84,89,85
412452.65,4265888.62,2171.90,81,90,85
412451.44,4265888.05,2172.06,58,69,63
412450.25,4265887.50,2172.65,142,157,150
412449.00,4265886.91,2172.63,23,39,36
412447.75,4265886.33,2172.40,51,70,66
412446.48,4265885.73,2172.01,29,50,45
412445.25,4265885.15,2172.01,11,41,31
412444.00,4265884.57,2172.03,28,58,48
412442.75,4265883.98,2172.06,27,52,46
412441.52,4265883.40,2172.09,28,43,40
412437.80,4265881.66,2172.21,159,136,146
412440.30,4265882.83,2172.22,177,175,178
412436.56,4265881.07,2172.23,163,143,152
412439.05,4265882.24,2172.21,182,167,172
412435.31,4265880.49,2172.23,184,169,176
412434.07,4265879.91,2172.31,140,119,128
412431.87,4265878.90,2176.03,111,85,98
412430.59,4265878.29,2175.60,101,92,93
412427.84,4265876.99,2172.28,3,13,23
412426.60,4265876.41,2172.30,1,20,27
412425.39,4265875.84,2172.33,2,23,24
412421.66,4265874.09,2172.40,14,31,41
412420.41,4265873.50,2172.38,16,29,48
412419.19,4265872.92,2172.42,2,10,29
412417.94,4265872.34,2172.48,1,12,30
412416.71,4265871.77,2172.56,7,15,38
412415.46,4265871.17,2172.63,7,18,36
412412.00,4265869.58,2176.00,9,21,47
412410.78,4265869.00,2176.19,9,19,44
412409.56,4265868.42,2176.60,14,22,43
412408.37,4265867.88,2177.15,32,36,48
412404.63,4265866.13,2176.92,116,109,127
412407.13,4265867.30,2177.28,107,107,119
412403.40,4265865.55,2177.06,112,105,123
412405.85,4265866.70,2176.81,119,115,129
412402.16,4265864.96,2177.22,110,108,122
412399.63,4265863.77,2176.51,11,14,31
412398.35,4265863.17,2176.17,41,40,58
412395.53,4265861.83,2172.75,9,33,20
412394.29,4265861.25,2172.72,69,113,80
412393.07,4265860.67,2172.84,30,76,40
412390.57,4265859.50,2172.88,40,58,46
412389.32,4265858.92,2172.78,18,36,22
412386.84,4265857.75,2173.02,75,76,70
412385.57,4265857.16,2172.80,111,107,104
412384.32,4265856.57,2172.79,100,107,100
412383.07,4265855.99,2172.79,96,106,105
412381.81,4265855.40,2172.83,97,98,102
412380.54,4265854.80,2172.82,137,121,131
412379.30,4265854.21,2172.82,129,109,118
412378.05,4265853.63,2172.90,146,129,137
412375.55,4265852.46,2172.96,124,122,133
412376.79,4265853.04,2172.94,169,157,167
412374.31,4265851.88,2172.98,130,134,145
412373.07,4265851.30,2173.02,130,138,151
412371.83,4265850.71,2173.05,123,130,146
412370.57,4265850.12,2173.09,117,121,130
412366.85,4265848.38,2173.15,48,62,75
412359.30,4265844.84,2173.17,18,38,49
412358.06,4265844.25,2173.24,24,42,56
412356.81,4265843.67,2173.22,21,37,53
412355.56,4265843.08,2173.22,14,27,44
412354.30,4265842.49,2173.24,4,20,35
412353.05,4265841.90,2173.33,83,111,99
412351.79,4265841.31,2173.35,75,110,77
412352.60,4265842.20,2173.33,22,48,37
412353.84,4265842.79,2173.27,48,65,75
412355.09,4265843.37,2173.21,20,31,49
412356.33,4265843.96,2173.21,1,17,33
412357.58,4265844.55,2173.19,1,18,34
412358.83,4265845.13,2173.21,29,48,62
412360.09,4265845.73,2173.21,23,41,53
412367.58,4265849.25,2173.11,47,61,72
412370.08,4265850.42,2173.07,106,124,124
412368.84,4265849.84,2173.11,89,107,111
412371.33,4265851.02,2173.05,123,130,146
412372.59,4265851.61,2173.02,135,143,156
412373.85,4265852.20,2172.98,132,136,148
412375.09,4265852.79,2172.94,129,127,138
412376.33,4265853.37,2172.92,165,155,166
412377.58,4265853.96,2172.90,155,139,149
412378.82,4265854.54,2172.85,140,123,131
412381.32,4265855.71,2172.81,94,91,98
412380.08,4265855.13,2172.82,103,83,94
412382.56,4265856.30,2172.80,95,105,107
412383.82,4265856.90,2172.78,94,105,99
412385.08,4265857.49,2172.79,112,115,108
412386.36,4265858.09,2173.06,92,94,93
412388.82,4265859.25,2172.79,53,75,62
412390.07,4265859.84,2172.88,84,105,90
412393.76,4265861.57,2172.73,54,102,64
412395.01,4265862.16,2172.73,77,110,89
412397.81,4265863.49,2176.04,71,70,88
412399.03,4265864.07,2175.67,30,33,50
412402.86,4265865.87,2176.90,116,112,127
412404.09,4265866.45,2176.79,117,110,128
412405.33,4265867.04,2176.61,116,112,127
412406.60,4265867.63,2177.03,96,95,111
412407.87,4265868.23,2177.34,104,107,124
412409.09,4265868.81,2176.81,5,11,33
412410.27,4265869.36,2176.29,12,22,47
412411.47,4265869.92,2175.86,10,22,46
412414.94,4265871.54,2172.61,1,12,30
412416.20,4265872.13,2172.57,4,12,35
412418.66,4265873.29,2172.44,1,13,29
412421.15,4265874.46,2172.36,1,13,29
412424.86,4265876.20,2172.33,30,44,45
412430.06,4265878.66,2175.38,100,91,94
412431.30,4265879.25,2175.88,109,83,96
412433.53,4265880.28,2172.21,99,78,87
412434.77,4265880.86,2172.21,131,116,123
412436.01,4265881.45,2172.22,122,111,117
412437.23,4265882.02,2172.19,153,138,145
412438.48,4265882.61,2172.19,175,163,167
412439.73,4265883.20,2172.17,193,188,192
412440.96,4265883.78,2172.11,166,175,174
412442.21,4265884.36,2172.03,29,52,46
412443.44,4265884.94,2172.03,27,54,45
412444.68,4265885.52,2172.03,21,47,38
412447.15,4265886.67,2172.07,39,58,54
412445.92,4265886.11,2172.05,70,91,86
412449.65,4265887.87,2172.61,47,64,56
412448.41,4265887.28,2172.50,75,91,81
412452.12,4265889.02,2171.90,35,44,39
412453.36,4265889.61,2171.88,103,109,105
412454.58,4265890.17,2171.84,89,99,91
412455.81,4265890.75,2171.96,45,62,52
412457.06,4265891.34,2172.15,80,104,90
412459.54,4265892.50,2171.92,38,62,46
412458.28,4265891.92,2171.92,33,57,43
412462.03,4265893.67,2171.86,28,55,36
412460.79,4265893.09,2171.92,61,88,69
412464.48,4265894.84,2171.79,82,122,98
412463.26,4265894.25,2171.86,19,51,30
412465.72,4265895.42,2171.73,54,89,69
412466.97,4265896.00,2171.71,53,63,55
412468.22,4265896.59,2171.94,110,106,103
412467.92,4265897.33,2171.80,157,153,152
412466.66,4265896.74,2171.71,39,56,46
412465.42,4265896.16,2171.75,48,86,65
412464.19,4265895.58,2171.94,107,145,122
412462.96,4265895.00,2171.86,39,71,47
412461.72,4265894.42,2171.83,45,77,53
412460.48,4265893.84,2172.08,85,109,93
412457.98,4265892.67,2172.09,42,69,54
412459.21,4265893.25,2171.88,36,63,46
412455.54,4265891.53,2172.07,102,118,108
412456.76,4265892.09,2171.98,52,76,62
412454.29,4265890.95,2171.90,39,50,42
412453.03,4265890.34,2171.86,136,143,136
412445.59,4265886.87,2172.05,22,43,34
412446.83,4265887.45,2172.01,40,53,43
412444.36,4265886.29,2172.03,18,41,31
412443.12,4265885.71,2172.02,25,51,42
412441.88,4265885.13,2172.02,40,61,56
412438.16,4265883.38,2172.19,177,168,173
412440.63,4265884.55,2172.03,86,98,96
412435.65,4265882.21,2172.19,49,53,54
412439.40,4265883.96,2172.17,167,165,168
412436.90,4265882.80,2172.19,194,189,193
412434.41,4265881.63,2172.15,168,162,166
412433.17,4265881.05,2172.21,66,49,57
412428.24,4265878.74,2172.23,3,2,18
412427.00,4265878.16,2172.27,2,7,26
412425.76,4265877.58,2172.29,8,14,26
412424.50,4265876.99,2172.33,36,44,46
412420.77,4265875.24,2172.36,11,20,37
412419.54,4265874.66,2172.40,2,14,28
412418.29,4265874.08,2172.40,5,20,27
412414.56,4265872.33,2172.63,4,12,31
412413.35,4265871.75,2172.69,21,29,48
412411.10,4265870.73,2175.84,15,23,46
412409.88,4265870.16,2176.35,10,17,43
412408.67,4265869.59,2176.86,15,23,46
412407.49,4265869.04,2177.42,17,19,40
412406.21,4265868.44,2176.97,44,43,61
412403.68,4265867.25,2176.42,115,111,126
412404.93,4265867.84,2176.42,118,114,131
412401.22,4265866.09,2176.72,116,116,128
412402.42,4265866.67,2176.55,111,109,122
412399.98,4265865.52,2176.67,3,3,15
412398.70,4265864.92,2176.33,63,66,85
412397.44,4265864.33,2175.98,81,83,98
412394.63,4265862.99,2172.73,44,84,57
412392.15,4265861.83,2172.81,34,71,53
412389.68,4265860.67,2172.88,83,107,91
412384.68,4265858.33,2172.78,75,86,106
412383.42,4265857.74,2172.78,77,92,89
412382.17,4265857.15,2172.82,97,104,112
412380.91,4265856.56,2172.84,115,107,120
412379.65,4265855.96,2172.83,150,134,145
412378.39,4265855.38,2172.86,150,137,146
412377.14,4265854.80,2172.92,141,124,132
412375.93,4265854.21,2172.94,164,151,161
412374.66,4265853.63,2172.94,127,121,133
412373.41,4265853.04,2173.00,126,128,140
412372.17,4265852.46,2173.04,133,141,154
412369.68,4265851.29,2173.09,125,132,148
412370.93,4265851.88,2173.07,130,139,154
412368.42,4265850.71,2173.09,129,136,152
412367.18,4265850.12,2173.15,124,136,148
412365.92,4265849.53,2173.17,87,99,111
412364.68,4265848.95,2173.21,12,25,34
412362.17,4265847.78,2173.23,33,46,55
412360.92,4265847.19,2173.25,11,25,38
412359.66,4265846.59,2173.23,16,32,48
412357.18,4265845.44,2173.22,6,21,40
412358.42,4265846.02,2173.23,3,20,38
412355.91,4265844.84,2173.21,3,19,35
412353.40,4265843.66,2173.29,37,53,68
412352.57,4265843.84,2173.29,4,20,33
412353.84,4265844.42,2173.27,14,31,51
412355.10,4265845.02,2173.21,2,18,41
412356.34,4265845.61,2173.19,5,20,39
412358.86,4265846.79,2173.22,28,43,62
412357.59,4265846.20,2173.22,8,23,42
412360.12,4265847.38,2173.22,45,58,74
412361.37,4265847.96,2173.23,30,42,54
412362.61,4265848.56,2173.22,57,67,77
412363.85,4265849.13,2173.22,49,60,66
412365.10,4265849.73,2173.19,96,106,116
412366.35,4265850.32,2173.15,134,146,158
412367.60,4265850.90,2173.11,125,131,147
412368.83,4265851.48,2173.10,126,133,149
412370.08,4265852.07,2173.07,131,138,154
412371.32,4265852.65,2173.05,124,136,148
412372.59,4265853.25,2173.01,130,136,148
412375.06,4265854.41,2172.94,145,132,142
412373.83,4265853.84,2172.97,125,122,133
412376.32,4265855.00,2173.00,157,140,150
412377.55,4265855.59,2172.86,159,142,150
412378.84,4265856.19,2173.06,142,132,141
412380.06,4265856.77,2172.82,164,152,166
412381.29,4265857.34,2172.80,67,61,75
412382.54,4265857.92,2172.81,66,77,81
412383.77,4265858.50,2172.78,19,31,47
412385.02,4265859.09,2172.79,9,20,38
412386.30,4265859.70,2172.99,40,50,49
412388.76,4265860.86,2172.81,32,66,49
412395.00,4265863.79,2172.74,59,90,72
412396.51,4265864.52,2175.71,76,83,91
412397.80,4265865.13,2176.08,66,67,85
412399.08,4265865.73,2176.42,76,84,97
412400.31,4265866.31,2176.56,29,26,37
412401.53,4265866.88,2176.40,122,122,132
412402.78,4265867.46,2176.28,114,112,125
412404.02,4265868.05,2176.11,117,113,130
412405.30,4265868.66,2176.57,103,100,119
412406.57,4265869.25,2177.11,15,16,36
412407.83,4265869.84,2177.26,19,25,47
412409.01,4265870.40,2176.73,31,38,64
412410.20,4265870.96,2176.21,24,31,57
412414.90,4265873.15,2172.55,2,18,31
412419.85,4265875.48,2172.36,10,23,32
412424.81,4265877.81,2172.34,16,24,27
