ply
format ascii 1.0
element vertex 548
property double x
property double y
property double z
property uchar red
property uchar green
property uchar blue
end_header
-1377809.3868953324854374 -4803523.2315942198038101 3953585.0302421757951379 186 192 192
-1377807.3424156743567437 -4803524.6183899622410536 3953586.6494293194264174 84 46 33
-1377809.9742511964868754 -4803523.1042994093149900 3953584.8698614304885268 155 161 159
-1377811.9640169597696513 -4803523.1333604473620653 3953584.3698212993331254 40 36 37
-1377810.3427869265433401 -4803522.9849508376792073 3953584.7580042276531458 198 200 195
-1377814.9059810994658619 -4803522.0401399312540889 3953584.9405405549332500 54 61 69
-1377810.7450959729030728 -4803522.8955322103574872 3953584.6318110385909677 91 78 61
-1377810.7390227417927235 -4803522.9037423143163323 3953584.6307317954488099 104 85 71
-1377811.9201927720569074 -4803522.7659644447267056 3953584.5130320144817233 61 24 16
-1377809.8874094369821250 -4803522.9124059500172734 3953584.6982992221601307 169 178 177
-1377811.8761584991589189 -4803522.7226491244509816 3953584.4505319213494658 25 9 9
-1377812.2977443349082023 -4803522.5293648215010762 3953584.5603404203429818 50 21 13
-1377811.3844003120902926 -4803522.4449975285679102 3953584.4137681312859058 170 104 72
-1377809.3522585788741708 -4803522.4258125983178616 3953584.7788700824603438 41 46 50
-1377813.7259888025000691 -4803521.6680200751870871 3953584.2726847478188574 11 11 9
-1377813.9064984032884240 -4803521.4679246656596661 3953584.4660154725424945 20 20 18
-1377813.7876339606009424 -4803521.8570621805265546 3953583.9821746302768588 23 22 17
-1377814.0410855282098055 -4803521.6588612562045455 3953583.9499240145087242 38 37 33
-1377809.3706933329813182 -4803522.4200441474094987 3953584.5085176220163703 37 41 44
-1377811.2857633067760617 -4803522.2308016531169415 3953583.9854134493507445 105 88 68
-1377808.5220775131601840 -4803522.5450372174382210 3953584.5029757646843791 178 184 182
-1377813.8296568563673645 -4803521.3871685797348619 3953584.1203894889913499 6 6 6
-1377813.7051224696915597 -4803521.6823581764474511 3953583.7287653875537217 21 22 17
-1377813.8003544476814568 -4803521.4666444798931479 3953583.9495132160373032 9 8 6
-1377813.7407572641968727 -4803521.1769287828356028 3953584.3132613762281835 36 37 32
-1377813.5856161674018949 -4803521.6545111183077097 3953583.6793913049623370 39 40 34
-1377813.7376550596673042 -4803521.5365031221881509 3953583.7716420334763825 13 12 8
-1377809.5743017136119306 -4803522.2994362888857722 3953584.2550734123215079 184 189 185
-1377813.6049564676359296 -4803521.3740584496408701 3953583.8932439046911895 42 43 37
-1377811.3903608827386051 -4803522.0204370664432645 3953583.8645126475021243 84 77 67
-1377813.6342623631935567 -4803521.2503959862515330 3953583.9363483563065529 11 11 11
-1377813.7654080025386065 -4803521.2606475371867418 3953583.8708916408941150 19 20 15
-1377813.7706035675946623 -4803520.6990463044494390 3953584.4427920235320926 16 18 17
-1377813.7100740962196141 -4803521.2363542206585407 3953583.8407767647877336 16 16 14
-1377811.0220486535690725 -4803521.8452902268618345 3953584.1078096283599734 10 14 17
-1377813.4627250065095723 -4803521.2146585751324892 3953583.8211892638355494 12 12 12
-1377813.4685003187041730 -4803521.3377063488587737 3953583.5689267632551491 15 15 13
-1377813.6476243049837649 -4803520.9874729365110397 3953583.8561189970932901 39 42 35
-1377813.6123099795076996 -4803521.0516480412334204 3953583.7950189202092588 16 18 17
-1377813.6474766326136887 -4803520.9229095755144954 3953583.8329480015672743 11 13 10
-1377813.5964129862841219 -4803520.8119941838085651 3953583.9708139388822019 17 19 18
-1377811.2815990177914500 -4803521.8404827024787664 3953583.6632870440371335 185 168 138
-1377813.3735527771059424 -4803521.1687675984576344 3953583.4421670865267515 22 23 18
-1377809.9057231114711612 -4803521.9219098733738065 3953583.9527177894487977 125 122 113
-1377811.1203311129938811 -4803521.8090777099132538 3953583.5102446749806404 85 66 62
-1377811.0473049252759665 -4803521.1300065424293280 3953584.1398152355104685 94 91 86
-1377813.6710910734254867 -4803520.6092721903696656 3953583.6037521502003074 41 48 41
-1377811.4206475140526891 -4803521.7896288763731718 3953583.3176699327304959 54 35 29
-1377813.5900275062303990 -4803520.7847034810110927 3953583.4254759592004120 95 98 89
-1377809.4066453953273594 -4803521.9208866199478507 3953583.9112635967321694 168 151 141
-1377811.1644713752903044 -4803521.1695318585261703 3953583.8371248422190547 118 125 131
-1377811.1435740420129150 -4803521.4552546367049217 3953583.5057748961262405 48 30 26
-1377811.1589073482900858 -4803521.5818902095779777 3953583.3596706790849566 46 33 27
-1377811.1222277544438839 -4803521.3671481125056744 3953583.5172231947071850 70 49 44
-1377808.8982320530340075 -4803521.8834707057103515 3953583.9410296278074384 139 108 90
-1377811.1497101322747767 -4803521.3943694010376930 3953583.4333613882772624 26 14 14
-1377810.8540656631812453 -4803521.3996182000264525 3953583.4761389410123229 42 28 17
-1377809.0714030964300036 -4803521.7352399313822389 3953583.8876769072376192 138 117 98
-1377810.3032575808465481 -4803521.4694658257067204 3953583.5219011083245277 148 98 65
-1377807.1619784208014607 -4803522.1548014963045716 3953584.2482498101890087 109 93 80
-1377807.4448882739525288 -4803522.0511735929176211 3953584.1882714731618762 116 113 108
-1377808.7378306831233203 -4803521.7810105197131634 3953583.8483384125865996 171 168 159
-1377808.0980368040036410 -4803522.0632242131978273 3953583.8826479376293719 93 40 26
-1377810.8909990221727639 -4803521.5375516628846526 3953583.1101067294366658 43 43 43
-1377811.3490343452431262 -4803521.5750579200685024 3953582.8377250493504107 139 134 128
-1377810.9866443185601383 -4803521.7566447593271732 3953582.7748663485981524 114 110 109
-1377811.6587469466030598 -4803521.6912062661722302 3953582.5237951250746846 108 97 67
-1377810.3904572792816907 -4803521.7389815896749496 3953583.0361661217175424 33 37 46
-1377808.5888249957934022 -4803521.7208527410402894 3953583.8318064319901168 144 128 112
-1377809.1625463515520096 -4803521.9870693618431687 3953583.2559911864809692 6 36 47
-1377807.4707222902216017 -4803521.9119982179254293 3953584.0999182388186455 132 114 94
-1377809.1244504416827112 -4803521.9809143925085664 3953583.2261273455806077 39 69 77
-1377810.9537351161707193 -4803521.7387480130419135 3953582.5566812176257372 131 130 126
-1377809.7925914512015879 -4803521.8963073762133718 3953582.9482328901067376 109 98 94
-1377810.9215122766327113 -4803521.7379069924354553 3953582.5067024002783000 70 68 69
-1377808.4143171852920204 -4803521.6817988008260727 3953583.7422407269477844 143 127 112
-1377809.1649039566982538 -4803521.5133725414052606 3953583.4944869456812739 41 34 28
-1377810.1017791745252907 -4803521.8109533619135618 3953582.7979546831920743 110 106 107
-1377807.6326177534647286 -4803521.8061119904741645 3953583.9516845154576004 84 65 58
-1377807.1644491322804242 -4803521.8904699031263590 3953584.0918259671889246 95 88 80
-1377810.6589071117341518 -4803522.0452765803784132 3953582.2989272708073258 54 53 58
-1377810.2450442668050528 -4803521.9970891242846847 3953582.5039683650247753 130 130 130
-1377809.9091282533481717 -4803521.9591620974242687 3953582.6861430993303657 129 128 126
-1377808.8387786990497261 -4803521.7992139747366309 3953583.2609149785712361 142 143 138
-1377807.6419292036443949 -4803521.7004242846742272 3953583.9155189078301191 41 33 30
-1377809.7362977317534387 -4803522.0921217426657677 3953582.5823483332060277 97 93 90
-1377807.2991488738916814 -4803521.7490187892690301 3953584.0176116712391376 134 133 131
-1377809.5133822215721011 -4803522.1035527298226953 3953582.6419713720679283 123 122 118
-1377810.1790803840849549 -4803522.2793336380273104 3953582.1428436115384102 149 149 149
-1377809.4033740609884262 -4803522.3118156921118498 3953582.4632555646821856 115 111 108
-1377810.1322535788640380 -4803522.3344507236033678 3953582.0644527832046151 141 142 136
-1377808.9167091348208487 -4803522.1747231557965279 3953582.7711796197108924 105 98 90
-1377809.2524912862572819 -4803522.3333521597087383 3953582.4539427519775927 131 127 124
-1377808.2199562289752066 -4803522.0704508358612657 3953583.1484599285759032 76 81 49
-1377808.7101951313670725 -4803522.2942254822701216 3953582.6839634058997035 129 126 119
-1377809.3255764986388385 -4803522.5768954744562507 3953582.0968439239077270 90 89 85
-1377808.4858250669203699 -4803522.3710990790277719 3953582.6519350083544850 126 119 111
-1377808.4807535642758012 -4803522.3803292792290449 3953582.6484529506415129 126 119 111
-1377807.6884658555500209 -4803522.1566915214061737 3953583.1894343961030245 85 76 47
-1377808.5584146450273693 -4803522.5801863921806216 3953582.3695862931199372 93 88 85
-1377808.6216873174998909 -4803522.6869292026385665 3953582.2017675014212728 93 88 85
-1377808.9466233523562551 -4803522.8939546998590231 3953581.8347584982402623 135 128 120
-1377807.5405220573302358 -4803522.6250954810529947 3953582.6810271646827459 94 89 67
-1377808.4793047916609794 -4803523.0100444676354527 3953581.8795266575179994 118 118 118
-1377808.3645885156001896 -4803523.0116656292229891 3953581.9278946616686881 121 120 118
-1377808.4737374451942742 -4803523.0887197284027934 3953581.7821432547643781 125 124 122
-1377806.6376233818009496 -4803522.4846949698403478 3953583.1497620651498437 69 70 54
-1377806.8027969026006758 -4803522.6594855207949877 3953582.9168226784095168 101 103 81
-1377807.9953858654480428 -4803522.9823821624740958 3953582.0319036589935422 104 108 109
-1377808.0612922024447471 -4803523.0315925534814596 3953581.9444196964614093 146 150 151
-1377808.2610154822468758 -4803523.1763089811429381 3953581.6991385142318904 151 156 159
-1377807.9476624345406890 -4803523.0728250807151198 3953581.9339644275605679 153 157 156
-1377806.8552044569514692 -4803522.8300130395218730 3953582.6743325903080404 72 76 59
-1377807.7745820654090494 -4803523.1137611661106348 3953581.9946868964470923 116 124 126
-1377807.9253565345425159 -4803523.1383927157148719 3953581.8972343858331442 136 138 137
-1377807.8376907263882458 -4803523.0770815964788198 3953581.9769774512387812 123 123 121
-1377807.6317159540485591 -4803523.0183444404974580 3953582.1206804164685309 91 79 65
-1377806.9399800193496048 -4803522.9937692973762751 3953582.4299446246586740 115 117 95
-1377808.3531663175672293 -4803524.2176323914900422 3953586.1238846806809306 36 25 19
-1377808.8818916301243007 -4803524.0576252276077867 3953586.6225388888269663 31 20 16
-1377808.5416699200868607 -4803524.2879879465326667 3953585.8047471870668232 55 40 33
-1377808.3626526540610939 -4803524.1030156482011080 3953585.8757148683071136 14 10 11
-1377808.2054603255819529 -4803523.8846946768462658 3953585.9735119719989598 37 30 24
-1377821.7166683308314532 -4803520.2242208421230316 3953594.2169877104461193 131 154 185
-1377820.9503150733653456 -4803520.2038660813122988 3953593.5020018527284265 68 68 80
-1377820.8797642702702433 -4803521.6447191648185253 3953589.8811010587960482 21 19 22
-1377810.1154999416321516 -4803523.8670073933899403 3953585.0343918632715940 69 42 31
-1377823.6350610658992082 -4803520.3588949525728822 3953590.9341190126724541 54 94 145
-1377810.0060468500014395 -4803523.8007832709699869 3953584.6364487777464092 77 45 30
-1377811.5202799085527658 -4803523.2149855047464371 3953584.4047813550569117 42 15 6
-1377811.4347211341373622 -4803523.0245614442974329 3953584.7037559612654150 79 61 51
-1377808.9713140786625445 -4803523.1607441259548068 3953584.9187878547236323 121 103 79
-1377808.1216188073158264 -4803523.1321205943822861 3953585.0515440143644810 81 82 86
-1377809.0553490293677896 -4803523.0992492306977510 3953584.8866518018767238 177 157 133
-1377809.9693201172631234 -4803522.9333811579272151 3953584.7487523881718516 157 165 167
-1377810.3936841043177992 -4803522.9177903961390257 3953584.6446292372420430 142 123 93
-1377810.6078526536002755 -4803522.8772544730454683 3953584.6471592481248081 124 107 87
-1377811.1419745185412467 -4803522.8161900779232383 3953584.5284402053803205 142 127 104
-1377805.9590752958320081 -4803523.0735597694292665 3953585.2717301268130541 59 68 65
-1377811.8042346921283752 -4803522.5145601825788617 3953584.2464411566033959 18 12 12
-1377809.7099003151524812 -4803522.6489648092538118 3953584.5352645106613636 169 175 175
-1377809.3791414068546146 -4803522.4331029029563069 3953584.4214354124851525 104 107 100
-1377814.0282373377121985 -4803521.4867180259898305 3953584.0107636069878936 17 16 12
-1377814.1095828467514366 -4803521.4496418135240674 3953584.0357826063409448 17 16 12
-1377809.4044061093591154 -4803522.4237688649445772 3953584.3754079383797944 194 196 183
-1377811.4056857172399759 -4803522.1744738174602389 3953583.9812442162074149 123 112 94
-1377813.4956077467650175 -4803521.1188877476379275 3953584.2185453381389380 8 10 9
-1377813.7025960672181100 -4803521.5510641345754266 3953583.6395038967020810 28 29 24
-1377813.7327578777913004 -4803521.0125667564570904 3953584.1626923726871610 15 17 14
-1377809.0285104587674141 -4803522.2019387651234865 3953584.1915486385114491 188 194 192
-1377809.0294346192386001 -4803522.1314335698261857 3953584.1526697245426476 221 225 224
-1377809.0397294734138995 -4803522.1350685926154256 3953584.1552166971378028 171 177 175
-1377813.6075215691234916 -4803520.8779965313151479 3953583.4575820416212082 18 19 14
-1377813.8177112513221800 -4803520.8939621783792973 3953583.3353749224916101 7 7 5
-1377813.5156938971485943 -4803521.0678613483905792 3953583.2717870958149433 7 7 5
-1377813.3326286436058581 -4803521.0185666652396321 3953583.2950461269356310 17 16 12
-1377809.5228660753928125 -4803521.9255463778972626 3953583.8900494002737105 46 37 32
-1377816.1061767693608999 -4803519.4726663315668702 3953583.5321757411584258 135 136 138
-1377811.2706133965402842 -4803521.9036111105233431 3953583.0708856075070798 152 162 164
-1377808.0552618026267737 -4803522.1684196460992098 3953583.9975116709247231 155 148 138
-1377809.4461694012861699 -4803521.7138663390651345 3953583.7723136418499053 52 37 32
-1377811.4000644790939987 -4803521.5162951406091452 3953583.0671722101978958 38 25 19
-1377807.7602357459254563 -4803522.0671022655442357 3953584.1153072104789317 73 60 51
-1377811.4128733854740858 -4803521.4890092601999640 3953583.0006540948525071 147 138 99
-1377811.2635536335874349 -4803521.5333155337721109 3953582.9551049899309874 35 30 27
-1377807.4299880214966834 -4803521.9931849818676710 3953584.1830950411967933 97 84 75
-1377807.7600201948080212 -4803522.0063485000282526 3953583.9776946124620736 61 50 46
-1377811.0668623705860227 -4803521.7570377672091126 3953582.6836097808554769 70 68 69
-1377810.7314930928405374 -4803521.7689930722117424 3953582.7735867882147431 61 56 53
-1377810.0646642001811415 -4803521.8642198620364070 3953582.9304414088837802 126 118 115
-1377807.7899861333426088 -4803521.9865819746628404 3953583.8588488125242293 54 29 22
-1377809.9681641827337444 -4803521.8848110577091575 3953582.9042282523587346 73 65 63
-1377810.5010524005629122 -4803521.7781600374728441 3953582.6923411241732538 129 125 124
-1377810.9406309898477048 -4803521.9441229570657015 3953582.2936397823505104 107 109 108
-1377810.9065942231100053 -4803522.0018324637785554 3953582.2335695740766823 90 93 98
-1377808.8801268350798637 -4803521.6431063171476126 3953583.4488502074964345 126 123 116
-1377808.8973971731029451 -4803521.6226854827255011 3953583.4584575491026044 118 118 110
-1377810.1902870372869074 -4803522.1462680008262396 3953582.3107889802195132 69 69 69
-1377810.1341406286228448 -4803522.1777432104572654 3953582.2691030446439981 133 132 130
-1377809.4756390587426722 -4803522.1580760078504682 3953582.5822098869830370 109 105 102
-1377809.4476385700982064 -4803522.1929758768528700 3953582.5668676756322384 115 111 108
-1377808.7673243321478367 -4803522.1820118175819516 3953582.8315856098197401 128 125 120
-1377809.2041518117766827 -4803522.2535147601738572 3953582.5569245493970811 104 99 95
-1377809.3909815871156752 -4803522.4346282212063670 3953582.2939509004354477 107 107 107
-1377808.9083225310314447 -4803522.3227558862417936 3953582.5805702954530716 127 125 126
-1377807.3494433141313493 -4803521.6555251060053706 3953583.8631318579427898 103 90 74
-1377809.4889733477029949 -4803522.4808869827538729 3953582.1667353073135018 100 99 97
-1377809.1616157172247767 -4803522.4306257814168930 3953582.3535409155301750 88 82 82
-1377808.3135979415383190 -4803522.2180318078026175 3953582.9276398941874504 127 118 109
-1377809.6511502445209771 -4803522.5343700619414449 3953582.0188656114041805 100 95 92
-1377808.8961430843919516 -4803522.4086744366213679 3953582.4666864997707307 57 48 51
-1377809.4912342068273574 -4803522.6098829880356789 3953582.0147572914138436 117 109 107
-1377808.8392077800817788 -4803522.5188912348821759 3953582.3577438257634640 112 111 109
-1377809.2050095549784601 -4803522.6661266442388296 3953582.0611472059972584 143 142 137
-1377808.8868675574194640 -4803522.6207474470138550 3953582.2382938791997731 93 87 87
-1377807.9056471928488463 -4803522.3090090621262789 3953582.9296699380502105 70 65 45
-1377809.3494851484429091 -4803522.7588887447491288 3953581.8617450119927526 92 87 83
-1377808.9343579865526408 -4803522.6624072752892971 3953582.1285118907690048 134 131 126
-1377807.2582629011012614 -4803522.1915043937042356 3953583.2938149515539408 67 65 44
-1377807.9944211323745549 -4803522.5307725192978978 3953582.6121559697203338 59 56 41
-1377808.1046835200395435 -4803522.7831842014566064 3953582.2702478053979576 87 83 80
-1377808.6583280346821994 -4803523.0720144379884005 3953581.7255387371405959 118 112 96
-1377808.0487233868334442 -4803522.9715531077235937 3953582.0214847740717232 163 168 172
-1377808.0220955230761319 -4803523.0475428448989987 3953581.9680917835794389 135 135 135
-1377807.8553748570848256 -4803523.0427516959607601 3953582.0381545191630721 128 133 136
-1377807.8935054838657379 -4803523.0632315184921026 3953581.9988326281309128 94 94 96
-1377807.8550957087427378 -4803523.0773021625354886 3953581.9891325985081494 135 136 138
-1377808.0222059926018119 -4803523.1426574317738414 3953581.8537082527764142 126 128 127
-1377807.8585264934226871 -4803523.0875600408762693 3953581.9657797450199723 137 139 138
-1377807.8973168712109327 -4803523.0701684141531587 3953581.9440564787946641 144 148 151
-1377807.8898097050841898 -4803523.0826740982010961 3953581.9392953268252313 129 133 136
-1377806.7465461234096438 -4803522.8612057715654373 3953582.6909467200748622 46 47 31
-1377807.7460094455163926 -4803523.1202226597815752 3953581.9792837318964303 108 103 100
-1377807.4444875714834780 -4803523.1209743963554502 3953582.1154339341446757 99 94 72
-1377807.8848092618864030 -4803523.2413805881515145 3953581.7824371368624270 101 100 98
-1377807.9272381768096238 -4803523.2281652726233006 3953581.7569594453088939 102 99 94
-1377807.4294607276096940 -4803523.1133555155247450 3953582.0745624531991780 136 129 103
-1377807.3560115245636553 -4803523.1444706805050373 3953582.0653648693114519 79 79 53
-1377819.9165237415581942 -4803522.8976852837949991 3953594.9553999546915293 47 54 64
-1377809.0254881640430540 -4803524.2537958063185215 3953585.6041624969802797 97 46 19
-1377809.4073155010119081 -4803524.1750523848459125 3953585.3499393258243799 80 54 37
-1377808.3495965083129704 -4803524.0069334683939815 3953585.5396770657971501 71 69 70
-1377822.0336069019977003 -4803519.8981535769999027 3953594.1937353131361306 154 174 199
-1377822.4187192018143833 -4803520.5680105956271291 3953591.1779627637006342 50 90 142
-1377810.9437419839669019 -4803523.5027393568307161 3953584.6605766592547297 73 44 30
-1377811.8481867439113557 -4803523.1181340739130974 3953584.3444075654260814 77 48 30
-1377809.9035302971024066 -4803522.9504940379410982 3953584.7661978513933718 180 185 189
-1377809.8194579493720084 -4803522.9388937288895249 3953584.7608134723268449 153 159 159
-1377810.6392830912955105 -4803522.7694588275626302 3953584.5455975062213838 38 40 39
-1377810.6380742986220866 -4803522.7711143279448152 3953584.5438858196139336 38 40 39
-1377810.8540629146154970 -4803522.7580351652577519 3953584.4815583871677518 31 33 32
-1377809.8047219698783010 -4803522.8189141070470214 3953584.6440608431585133 167 175 177
-1377811.0404902670998126 -4803522.6684074876829982 3953584.4428890300914645 8 8 8
-1377811.5335053862072527 -4803522.5425551710650325 3953584.2212538160383701 50 51 43
-1377811.7545267164241523 -4803522.3264016872271895 3953584.1633968031965196 186 192 192
-1377814.0047762983012944 -4803521.6723587457090616 3953584.0827236091718078 37 32 26
-1377810.9509211981203407 -4803522.0302166743203998 3953584.0218716664239764 10 8 9
-1377811.3068405280355364 -4803521.9875426450744271 3953583.8378470828756690 141 125 99
-1377809.0541426006238908 -4803522.2504519661888480 3953584.2521059648133814 182 188 186
-1377813.4904646645300090 -4803521.2498784083873034 3953583.5369719774462283 41 42 36
-1377811.1910835886374116 -4803522.2895883284509182 3953583.1803677272982895 8 8 6
-1377811.2269987685140222 -4803521.7341115502640605 3953583.6491834577172995 118 100 78
-1377811.4722359010484070 -4803521.7765688551589847 3953583.1910563963465393 38 25 19
-1377810.9396013780497015 -4803521.9103088239207864 3953583.2254008664749563 184 193 192
-1377810.8508762021083385 -4803521.4860404990613461 3953583.5321593089029193 38 34 31
-1377807.7097438247874379 -4803522.0776509642601013 3953584.1704764412716031 102 72 62
-1377811.0756822512485087 -4803521.3320133313536644 3953583.3141350927762687 18 12 12
-1377807.7669157569762319 -4803522.0892209773883224 3953583.9482868202030659 154 150 138
-1377811.7229085236322135 -4803521.5692085037007928 3953582.5149895856156945 137 128 95
-1377811.3032432442996651 -4803521.6770780216902494 3953582.5700609637424350 83 75 56
-1377811.3646290069445968 -4803521.7684757448732853 3953582.4010271420702338 78 76 55
-1377807.0267998089548200 -4803522.0012482339516282 3953584.1703548263758421 159 145 136
-1377809.1048055144492537 -4803521.5362089918926358 3953583.5220062872394919 143 139 128
-1377810.4543278201017529 -4803522.0759660890325904 3953582.3223910843953490 62 62 64
-1377809.6116560003720224 -4803522.1879786755889654 3953582.4956434546038508 154 151 146
-1377808.3727689320221543 -4803521.9404586488381028 3953583.2918093288317323 138 129 114
-1377809.0648188488557935 -4803522.1085281800478697 3953582.7805490675382316 147 148 143
-1377808.2487218452151865 -4803521.8678188715130091 3953583.3380853654816747 61 64 35
-1377809.0579135681036860 -4803522.6363043282181025 3953582.1330329966731369 151 146 142
-1377808.1358685297891498 -4803522.4268918726593256 3953582.6850458034314215 89 81 60
-1377809.2131723600905389 -4803522.8369250362738967 3953581.8413432394154370 122 115 109
-1377808.5544264605268836 -4803522.7682636510580778 3953582.1517960098572075 105 100 96
-1377808.1828476977534592 -4803522.7612683335319161 3953582.3118373425677419 100 89 83
-1377808.7458982632961124 -4803522.9634103598073125 3953581.8418875187635422 85 83 84
-1377808.7479965833481401 -4803523.0066653992980719 3953581.7997382581233978 119 118 116
-1377807.2504315006081015 -4803522.5285357004031539 3953582.9051052215509117 113 107 83
-1377808.7808472053147852 -4803523.0738040767610073 3953581.7205782770179212 113 113 87
-1377808.1679177735932171 -4803522.8443057965487242 3953582.1836779462173581 125 121 120
-1377808.0054730584379286 -4803523.0167109761387110 3953581.9761394090019166 106 108 105
-1377807.2303698728792369 -4803522.8636773442849517 3953582.4629136300645769 55 63 39
-1377808.2597206190694124 -4803523.2446123557165265 3953581.6357868993654847 125 125 123
-1377807.9734390894882381 -4803523.1649876572191715 3953581.8410643767565489 72 73 75
-1377808.2051419832278043 -4803523.3125116499140859 3953581.5843013678677380 104 99 95
-1377807.7947732054162771 -4803523.2204988235607743 3953581.8211729745380580 125 112 104
-1377820.2032233884092420 -4803524.4960906030610204 3953592.2923893430270255 117 143 170
-1377807.7894414206966758 -4803524.5253645246848464 3953586.4498895145952702 177 203 218
-1377811.8642322290688753 -4803522.9224520809948444 3953584.1962951826862991 86 58 37
-1377812.1091716736555099 -4803522.9376447144895792 3953584.1161570595577359 74 45 31
-1377811.1065496755763888 -4803522.7055150149390101 3953584.4662875193171203 45 45 45
-1377811.4698189448099583 -4803522.5113544585183263 3953584.2623930233530700 142 126 100
-1377813.8645893943030387 -4803521.5878732567653060 3953584.4129771823063493 44 43 39
-1377813.9871841529384255 -4803521.2101395269855857 3953584.0068514165468514 42 44 39
-1377813.7403095283079892 -4803521.0109554361552000 3953584.2808707566000521 18 18 16
-1377813.6190484850667417 -4803520.7631142279133201 3953583.5824416209943593 33 35 32
-1377811.2830837236251682 -4803521.8307123230770230 3953583.1528044585138559 152 164 164
-1377809.4402680820785463 -4803521.7890904685482383 3953583.8020575880073011 146 126 102
-1377810.9683387365657836 -4803521.3540687868371606 3953583.4128118408843875 94 48 22
-1377808.8722305421251804 -4803521.8073411248624325 3953583.8883808217942715 120 102 90
-1377812.1998026734218001 -4803521.3866465287283063 3953582.7361393924802542 174 157 114
-1377811.2094439987558872 -4803521.6792119061574340 3953582.6343791685067117 68 64 63
-1377811.1644607386551797 -4803521.6898345137014985 3953582.5337365744635463 134 133 129
-1377809.3798549608327448 -4803522.0909756608307362 3953582.7128817667253315 147 144 139
-1377809.3784448802471161 -4803522.3139810152351856 3953582.4108363557606936 136 135 131
-1377809.2634430706966668 -4803522.4268022747710347 3953582.3134820121340454 95 93 94
-1377809.2717761152889580 -4803522.4150088848546147 3953582.3117313017137349 113 113 111
-1377808.6535022687166929 -4803522.8884705286473036 3953581.9680271125398576 116 115 113
-1377808.4522535598371178 -4803522.8212483758106828 3953582.0993768582120538 131 122 115
-1377807.9163647778332233 -4803522.7571974433958530 3953582.3626563129946589 52 50 37
-1377808.6901429130230099 -4803523.0970747480168939 3953581.7242174251005054 45 50 30
-1377808.2917983001098037 -4803522.8910484192892909 3953582.0734365023672581 107 98 93
-1377808.3665217312518507 -4803522.9463659273460507 3953581.9869466787204146 81 77 76
-1377808.3883172341156751 -4803523.0583612676709890 3953581.8813759982585907 127 129 128
-1377808.3885509357787669 -4803523.1552793551236391 3953581.7176208640448749 126 128 125
-1377807.9330583042465150 -4803522.9726319592446089 3953582.0783813307061791 101 101 99
-1377808.4078763450961560 -4803523.1955826198682189 3953581.6632911022752523 123 119 110
-1377808.2861246352549642 -4803523.1648496687412262 3953581.7430656319484115 116 116 114
-1377808.3118366710841656 -4803523.2368520414456725 3953581.6559546664357185 102 97 93
-1377808.1597578602377325 -4803524.6984921880066395 3953585.6908490792848170 88 61 44
-1377809.4713003570213914 -4803522.7445209668949246 3953584.6373290093615651 98 100 95
-1377813.7035359684377909 -4803521.2633511554449797 3953584.1915023480542004 5 5 5
-1377809.6496270585339516 -4803522.1939859008416533 3953584.1414135200902820 247 251 252
-1377812.1452722002286464 -4803521.5201014755293727 3953582.8115751231089234 133 116 72
-1377810.7859596291091293 -4803521.4108222872018814 3953583.4511964395642281 77 50 33
-1377810.4870937978848815 -4803521.4723476143553853 3953583.4777031750418246 41 22 16
-1377810.9615075311157852 -4803521.3176411027088761 3953583.3442591400817037 154 146 133
-1377811.0248324025887996 -4803521.5802705353125930 3953582.8940183161757886 130 122 119
-1377809.8771924655884504 -4803521.7576802046969533 3953583.1220913478173316 134 120 117
-1377809.6301316923927516 -4803521.7975805243477225 3953583.0795741882175207 53 51 52
-1377807.3060153087135404 -4803521.8904963349923491 3953584.0781798795796931 139 143 146
-1377808.3546574888750911 -4803521.5792184825986624 3953583.6805644994601607 14 9 6
-1377809.2166101718321443 -4803522.5887445509433746 3953582.1421146197244525 109 105 102
-1377809.0056914733722806 -4803522.4743380052968860 3953582.3304520258679986 147 140 134
-1377808.6050327466800809 -4803523.0946364151313901 3953581.7217591861262918 104 100 91
-1377808.1106661250814795 -4803522.8716791542246938 3953582.1329528060741723 137 132 126
-1377808.2085458049550653 -4803522.9750198973342776 3953582.0094884554855525 132 131 127
-1377808.3521337162237614 -4803523.0615770034492016 3953581.8247075607068837 105 105 105
-1377808.0682487497106194 -4803523.1544188493862748 3953581.8135110675357282 133 137 136
-1377822.1816403404809535 -4803520.7678743302822113 3953590.0013858573511243 54 97 152
-1377807.9292697000782937 -4803523.0705312248319387 3953584.9831555057317019 194 200 198
-1377811.8524609287269413 -4803522.7513909349218011 3953584.3973877923563123 29 9 8
-1377812.9275668191257864 -4803522.2622776357457042 3953584.4835293735377491 10 8 9
-1377810.9282483910210431 -4803522.1445975080132484 3953584.0924311578273773 23 19 18
-1377809.0498632360249758 -4803522.4093470247462392 3953584.3044289499521255 63 51 39
-1377809.8675625859759748 -4803522.0248490935191512 3953584.0211910046637058 162 168 168
-1377808.8152726294938475 -4803522.0982522470876575 3953584.1395455361343920 202 203 197
-1377810.8477190206758678 -4803521.5040705921128392 3953583.5977015071548522 10 8 11
-1377811.4241983476094902 -4803521.6722228806465864 3953583.0764207048341632 60 41 35
-1377810.9543043826706707 -4803521.5104417158290744 3953583.2492323867045343 24 19 16
-1377810.6251112516038120 -4803521.7702726582065225 3953582.7598682553507388 54 50 51
-1377809.6882237894460559 -4803521.8542039068415761 3953582.9848129330202937 64 54 52
-1377809.0652745307888836 -4803521.6937858592718840 3953583.3735528080724180 41 36 32
-1377809.6949158380739391 -4803521.9835281437262893 3953582.7474101632833481 147 147 145
-1377807.2250968175940216 -4803521.7620883714407682 3953583.9592516790144145 115 103 91
-1377809.2019113271962851 -4803522.1939413212239742 3953582.5995273571461439 108 99 100
-1377808.3210300116334110 -4803522.3385658143088222 3953582.8130416013300419 143 143 143
-1377808.4571300707757473 -4803522.9399709189310670 3953581.9853146574459970 137 134 129
-1377808.1182026527822018 -4803523.0453772218897939 3953581.9389441055245697 114 110 109
-1377807.9868277877103537 -4803522.9901567315682769 3953581.9941753102466464 135 137 136
-1377808.0179562491830438 -4803523.0845202421769500 3953581.8953977818600833 139 145 145
-1377808.0103060067631304 -4803523.0878639863803983 3953581.8991101817227900 156 161 164
-1377808.0677821564022452 -4803523.2926340894773602 3953581.6521269083023071 129 131 130
-1377811.6040662291925400 -4803522.2115711299702525 3953584.0467942068353295 192 201 200
-1377811.1909386334009469 -4803521.7375435531139374 3953583.1099715894088149 34 20 19
-1377809.2149066615384072 -4803521.9996731663122773 3953583.5134209622628987 136 111 81
-1377810.6129161983262748 -4803521.7374604744836688 3953582.9140034448355436 137 130 122
-1377809.2524353100452572 -4803521.8459392748773098 3953583.0127221294678748 148 150 145
-1377809.5551696803886443 -4803522.2430180627852678 3953582.4360930314287543 130 126 125
-1377809.3741860720328987 -4803522.6939572868868709 3953581.9756285068579018 79 74 71
-1377809.3570113091263920 -4803522.7011808315292001 3953581.9713478577323258 89 83 83
-1377808.2504445905797184 -4803522.4689222024753690 3953582.6157760820351541 146 142 131
-1377807.7280916466843337 -4803522.9318318683654070 3953582.2374659404158592 47 45 30
-1377811.3383538001216948 -4803522.6900542462244630 3953584.4382197172380984 10 6 3
-1377807.5004516334738582 -4803522.6147861378267407 3953584.6230441154912114 172 178 178
-1377811.4327388056553900 -4803521.8901468412950635 3953583.7340362034738064 182 191 190
-1377810.0231590392068028 -4803521.7055675769224763 3953583.5513739557936788 113 98 91
-1377809.5143364274408668 -4803522.0198028460144997 3953582.7604590016417205 139 136 131
-1377808.7552683735266328 -4803522.4918776853010058 3953582.4056032225489616 91 81 80
-1377809.2611827456858009 -4803522.1444804538041353 3953583.2111091548576951 178 156 117
-1377810.4448625899385661 -4803522.8252812372520566 3953584.4702779175713658 22 22 22
-1377808.1179984793998301 -4803522.9235131563618779 3953582.0879877870902419 132 123 116
-1377811.6906491457484663 -4803523.0489518260583282 3953584.3684619767591357 46 15 10
-1377815.6291701667942107 -4803521.3467295765876770 3953585.1771465288475156 21 21 21
-1377807.6211903858929873 -4803522.7848221128806472 3953582.4087101370096207 128 119 90
-1377810.2371484492905438 -4803522.6366188563406467 3953582.7743624271824956 18 19 13
-1377807.3761749719269574 -4803521.7688066558912396 3953583.6936177820898592 57 50 34
-1377808.4894827876705676 -4803522.7798476042225957 3953584.8928621537052095 198 204 204
-1377810.7676786298397928 -4803522.4569559898227453 3953584.3427467653527856 19 17 18
-1377809.1218333183787763 -4803522.7908778646960855 3953584.7150157513096929 59 66 72
-1377808.3015526900999248 -4803524.2342637488618493 3953585.9589962065219879 9 5 4
-1377806.0137471721973270 -4803524.2111016167327762 3953585.9471743181347847 42 13 7
-1377808.0298381927423179 -4803524.3558645844459534 3953586.0100480429828167 28 17 15
-1377807.2702232834417373 -4803524.6494745742529631 3953584.8378163799643517 53 45 42
-1377809.0488953995518386 -4803524.3121281042695045 3953585.6286606984212995 56 24 13
-1377808.1033077498432249 -4803524.0804880633950233 3953585.8535922546871006 9 7 10
-1377821.1324821016751230 -4803522.5024762889370322 3953590.3086415575817227 84 84 84
-1377824.4546239778865129 -4803522.1905924035236239 3953590.2578941299580038 53 58 87
-1377824.3585143012460321 -4803521.4322406575083733 3953590.7728571924380958 39 41 53
-1377809.8332236867863685 -4803523.9174634460359812 3953585.2450800361111760 67 31 15
-1377823.1640633945353329 -4803521.4062676299363375 3953588.2873165085911751 21 21 31
-1377823.5697009449359030 -4803521.3231654493138194 3953588.1412026383914053 62 93 140
-1377810.5912798941135406 -4803523.7237246586009860 3953584.8881056681275368 22 18 19
-1377809.3722896797116846 -4803523.4529780698940158 3953585.1764603927731514 187 193 193
-1377811.7095723908860236 -4803523.2477547153830528 3953584.4814713043160737 25 25 35
-1377811.3871174312662333 -4803523.0451329415664077 3953584.5566068436019123 65 50 43
-1377811.7387011481914669 -4803522.9440546864643693 3953584.6058646775782108 44 13 8
-1377809.9213808327913284 -4803523.0048890821635723 3953584.8052634033374488 191 197 197
-1377810.3695017858408391 -4803523.1139976214617491 3953584.4850166128017008 71 67 68
-1377809.5358146021608263 -4803522.9296716684475541 3953584.8016223413869739 23 19 16
-1377811.7913292162120342 -4803522.8724564239382744 3953584.2750415112823248 29 8 3
-1377811.8628778830170631 -4803522.6026323866099119 3953584.3299642005003989 13 7 7
-1377809.7469664900563657 -4803522.7801162265241146 3953584.6055497583001852 176 186 185
-1377809.8662336536217481 -4803522.6979614002630115 3953584.5929569657891989 192 198 198
-1377811.6489595549646765 -4803522.2768042329698801 3953584.1369858183898032 98 95 88
-1377814.2115426312666386 -4803521.6504183271899819 3953584.1007414008490741 24 20 17
-1377813.9497515703551471 -4803521.3334607891738415 3953584.4853922734037042 7 9 6
-1377808.5170012775342911 -4803522.5771716665476561 3953584.5322549082338810 191 197 195
-1377813.7545362997334450 -4803521.6198136499151587 3953583.9456199854612350 17 16 12
-1377809.8305122673045844 -4803522.3435799954459071 3953584.2387569453567266 167 176 175
-1377813.8469084638636559 -4803521.3905140189453959 3953583.4799773464910686 43 44 39
-1377813.7650647298432887 -4803521.4969704244285822 3953583.3398769772611558 70 71 63
-1377813.6665692741516978 -4803521.3663431089371443 3953583.2799878306686878 41 42 37
-1377813.4206736441701651 -4803521.1566122518852353 3953583.5452677165158093 10 10 8
-1377809.7540505635552108 -4803522.0503796143457294 3953583.8823908534832299 125 122 113
-1377813.3549593971110880 -4803521.0347230043262243 3953583.4019175376743078 18 19 14
-1377813.4446555962786078 -4803521.0742266513407230 3953583.2096393019892275 35 34 32
-1377808.8728746220003814 -4803521.9621396828442812 3953583.9982861634343863 162 153 146
-1377808.1141978695522994 -4803522.0976514695212245 3953584.1764944577589631 43 38 34
-1377811.1494872707407922 -4803521.4692506901919842 3953583.5157542522065341 49 31 29
-1377807.9284060946665704 -4803522.1125485952943563 3953584.2099598096683621 45 40 37
-1377812.0409116738010198 -4803521.4684547195211053 3953582.8989669829607010 127 103 59
-1377807.4260073390323669 -4803522.1404580939561129 3953584.1982420631684363 113 95 83
-1377810.7901658299379051 -4803521.5874173436313868 3953583.0292522660456598 59 57 58
-1377807.3754680273123085 -4803522.0274526942521334 3953584.1122783720493317 112 98 89
-1377807.3147439295426011 -4803522.0151091301813722 3953584.1523160049691796 152 136 123
-1377808.8365578255616128 -4803521.6528545105829835 3953583.7668530726805329 180 177 172
-1377807.7087304831948131 -4803521.8894001776352525 3953583.9337584893219173 118 104 93
-1377808.0393653362989426 -4803521.8933587046340108 3953583.7344310749322176 114 59 38
-1377810.9458618389908224 -4803522.0918961269780993 3953582.1161567904055119 79 77 78
-1377807.4094348906073719 -4803521.7813617140054703 3953584.0000231764279306 40 29 25
-1377807.3914094245992601 -4803521.7570747518911958 3953583.9848116077482700 117 123 123
-1377809.0710784660186619 -4803522.0188496029004455 3953582.9152810121886432 151 150 146
-1377807.9854097117204219 -4803521.7485835663974285 3953583.5470135062932968 33 21 7
-1377809.3865468280855566 -4803522.5615536039695144 3953582.1581563614308834 100 99 97
-1377807.7240723744034767 -4803521.8445018315687776 3953583.5216625835746527 124 115 86
-1377807.2139572734013200 -4803521.7073437916114926 3953583.8993788128718734 36 25 19
-1377807.6738017173483968 -4803521.8519336227327585 3953583.5287019833922386 144 139 109
-1377807.6552489791065454 -4803521.8821940338239074 3953583.5152671979740262 144 139 109
-1377808.7077013317029923 -4803522.3554482264444232 3953582.5843155947513878 110 105 99
-1377807.5344146457500756 -4803521.9232762455940247 3953583.4715841826982796 58 64 30
-1377808.0709982526022941 -4803522.3911680309101939 3953582.7655207258649170 32 39 21
-1377807.5449394814204425 -4803522.2319699097424746 3953583.1586562995798886 85 80 50
-1377806.9007926657795906 -4803522.0502695506438613 3953583.6263539986684918 66 70 47
-1377808.7353587085381150 -4803522.7466582786291838 3953582.1348513551056385 130 123 117
-1377808.7100451928563416 -4803522.7976094866171479 3953582.1009226064197719 129 122 116
-1377809.0953942956402898 -4803522.9374876823276281 3953581.7879467997699976 106 104 83
-1377808.6434135711751878 -4803522.7212737379595637 3953582.1665398366749287 126 116 114
-1377808.4601351090241224 -4803522.7403838969767094 3953582.2281872178427875 87 83 82
-1377807.4787934378255159 -4803522.3032383574172854 3953583.0665855831466615 56 56 28
-1377806.6251937446650118 -4803522.0996725633740425 3953583.6675104168243706 85 91 65
-1377807.7042197287082672 -4803522.4493911517783999 3953582.8134858608245850 61 56 36
-1377808.7139377587009221 -4803520.8466841029003263 3953583.3666967814788222 91 86 57
-1377808.8809301722794771 -4803522.9805829664692283 3953581.7963132495060563 69 66 47
-1377808.5633123223669827 -4803522.7838291348889470 3953582.1059698374010623 100 95 92
-1377807.5180024504661560 -4803522.6323916129767895 3953582.6718428153544664 128 125 94
-1377807.2040992898400873 -4803522.4942288072779775 3953582.9521067985333502 106 102 75
-1377806.5542694635223597 -4803522.3567439652979374 3953583.3931470047682524 44 44 20
-1377807.3942799319047481 -4803522.7952857809141278 3953582.5043747313320637 58 55 36
-1377806.4257865322288126 -4803522.3739723730832338 3953583.3164068479090929 67 63 54
-1377808.0936523329000920 -4803523.0918089756742120 3953581.8914091601036489 108 104 101
-1377807.8962871031835675 -4803523.0015806443989277 3953582.0438714190386236 128 133 136
-1377807.6873875297605991 -4803522.9847506387159228 3953582.1731645758263767 111 104 85
-1377807.5354938060045242 -4803522.8896009698510170 3953582.3209989685565233 68 64 39
-1377806.4454535462427884 -4803522.4680919218808413 3953583.2138185873627663 118 116 93
-1377807.8491121577098966 -4803522.9961076062172651 3953582.0696318647824228 131 135 138
-1377807.5238379060756415 -4803522.9352098871022463 3953582.2898762938566506 69 72 45
-1377807.4156020537484437 -4803522.9590223543345928 3953582.3141937209293246 81 75 49
-1377807.3261862706858665 -4803522.8713653245940804 3953582.4127182103693485 74 72 57
-1377806.4553170213475823 -4803522.5430213036015630 3953583.1172955106012523 52 54 32
-1377806.4288549607153982 -4803522.4996952824294567 3953583.1552902515977621 102 97 78
-1377806.7151691357139498 -4803522.6524208039045334 3953582.8868690091185272 51 50 32
-1377806.9577112349215895 -4803522.8297343254089355 3953582.6312573598697782 50 49 31
-1377808.0249786134809256 -4803523.1450006430968642 3953581.8085556318983436 80 80 80
-1377807.5563993593677878 -4803523.0849971417337656 3953582.1126077533699572 109 98 78
-1377808.0824433334637433 -4803523.1985846552997828 3953581.7392149283550680 111 112 114
-1377807.2240107876714319 -4803522.8947334382683039 3953582.4181265109218657 59 63 40
-1377806.3123132556211203 -4803522.5150241563096642 3953583.1664701546542346 98 87 81
-1377808.1535289252642542 -4803523.2966096205636859 3953581.6089514093473554 121 117 114
-1377807.6947279646992683 -4803523.1485750107094646 3953581.9577814480289817 128 119 114
-1377807.1029207792598754 -4803522.9867700999602675 3953582.3908819332718849 129 124 95
-1377806.6710583029780537 -4803522.8176724305376410 3953582.7371388264000416 52 54 32
-1377806.9741186632309109 -4803522.9939240822568536 3953582.3970101582817733 71 69 44
-1377806.8023400206584483 -4803522.9057548912242055 3953582.5308324946090579 55 58 37
-1377807.3634180743247271 -4803523.1573870964348316 3953582.0416392907500267 132 124 101
-1377806.5129127679392695 -4803522.9171656910330057 3953582.6490106824785471 56 59 40
-1377806.8926563386339694 -4803523.1232538456097245 3953582.2934059901162982 75 73 52
-1377807.2481949923094362 -4803523.2271858938038349 3953582.0025054728612304 132 119 100
-1377806.9475333627779037 -4803523.2031292328611016 3953582.1507408758625388 106 109 82
-1377806.5146586711052805 -4803523.0792136443778872 3953582.4689464159309864 81 89 68
-1377806.9212571557145566 -4803523.2599263256415725 3953582.1004460714757442 98 97 76
-1377806.7597914231009781 -4803523.1668608738109469 3953582.2495569088496268 137 133 104
-1377807.3522916438523680 -4803523.3566243536770344 3953581.7762598567642272 114 111 106
-1377806.7503404184244573 -4803523.2029044069349766 3953582.2228475618176162 83 83 57
-1377807.1774351906497031 -4803523.3615183616057038 3953581.8316926406696439 122 118 117
-1377807.3534216554835439 -4803523.4605123996734619 3953581.6645617499016225 98 90 87
-1377807.3078786891419441 -4803523.4977563610300422 3953581.6531295981258154 124 119 115
-1377806.6512229533400387 -4803523.2958517773076892 3953582.1621355875395238 59 61 39
-1377806.8276158829685301 -4803523.3513338128104806 3953582.0209656725637615 32 34 21
-1377806.3302714973688126 -4803523.2283468944951892 3953582.3731604474596679 71 69 57
-1377807.1598082000855356 -4803523.4318803390488029 3953581.7380295391194522 126 126 128
-1377806.6500128034967929 -4803523.3099182266741991 3953582.0894531714729965 65 67 46
-1377806.4613901621196419 -4803523.3181281294673681 3953582.2056453591212630 35 37 23
-1377807.1353880050592124 -4803523.5195675548166037 3953581.6640040143392980 104 101 96
-1377807.1512146680615842 -4803523.5976113276556134 3953581.6113421162590384 138 138 138
-1377807.1447085826657712 -4803523.5422799186781049 3953581.6327474168501794 119 118 114
-1377808.2335200079251081 -4803524.6049347762018442 3953585.9270205278880894 85 56 40
-1377823.3348619514144957 -4803521.9445579601451755 3953589.6588672050274909 52 75 125
-1377810.4015029026195407 -4803523.6098378170281649 3953585.1646115472540259 73 30 13
-1377822.2860069000162184 -4803520.4196231970563531 3953589.6898332657292485 23 24 29
-1377822.1141454719472677 -4803520.3513115467503667 3953589.3251585029065609 29 27 38
-1377810.5456978722941130 -4803523.4577901419252157 3953585.1420540083199739 54 17 8
-1377808.9674173018429428 -4803523.4122791485860944 3953585.1892952467314899 187 193 193
-1377811.4384689913131297 -4803523.2910692859441042 3953584.4444293100386858 72 44 32
-1377811.6305518022272736 -4803523.2256726473569870 3953584.4291540686972439 70 44 29
-1377811.4043318533804268 -4803522.7704499950632453 3953584.4874355611391366 46 35 29
-1377808.5333323923405260 -4803522.8430957123637199 3953584.7931743427179754 203 209 207
-1377813.8106911652721465 -4803521.7503872029483318 3953583.8335413378663361 23 20 15
-1377813.8678893547039479 -4803521.4923940701410174 3953584.0318916635587811 35 34 29
-1377813.8721642810851336 -4803521.4120717849582434 3953583.7416908172890544 53 54 49
-1377813.5247020684182644 -4803521.3022487228736281 3953583.9137591472826898 11 11 11
-1377813.8291482967324555 -4803521.5518933935090899 3953583.4981675599701703 42 43 35
-1377814.2115222474094480 -4803521.0596109107136726 3953583.0717687634751201 37 34 27
-1377808.8267069016583264 -4803522.0663014007732272 3953584.0486365281976759 46 32 21
-1377813.6375522702001035 -4803521.0021628951653838 3953583.1737833297811449 11 10 8
-1377813.8620071639306843 -4803520.8069027932360768 3953583.1648990339599550 38 37 33
-1377813.5707320973742753 -4803520.9725836338475347 3953583.1209647152572870 38 37 33
-1377814.1159463645890355 -4803520.5295636728405952 3953583.3459685882553458 30 31 25
-1377813.8153910988476127 -4803520.9601373653858900 3953582.9978118767030537 42 45 38
-1377813.8939135582186282 -4803520.9542451882734895 3953582.9191988827660680 38 37 32
-1377813.6819027939345688 -4803521.0497511168941855 3953582.8249953184276819 123 112 80
-1377811.1873717086855322 -4803521.5679951161146164 3953583.3680480658076704 48 35 27
-1377809.4724714921321720 -4803521.8428065320476890 3953583.7556182048283517 60 50 40
-1377809.5195277531165630 -4803521.8007924733683467 3953583.7780975992791355 60 50 40
-1377813.1063397130928934 -4803521.0203896611928940 3953582.7697765682823956 89 77 51
-1377811.5640109877567738 -4803521.6426144661381841 3953582.7856949912384152 31 29 32
-1377806.8637864443007857 -4803522.1867855265736580 3953584.3415399645455182 65 54 52
-1377809.1118260815273970 -4803521.6776005253195763 3953583.7374773430638015 166 150 134
-1377807.5097657449077815 -4803521.9554308233782649 3953584.1168144368566573 134 136 133
-1377811.2922493049409240 -4803521.6238309759646654 3953582.6410198849625885 68 64 63
-1377811.4412529184482992 -4803521.6874022223055363 3953582.4614899833686650 66 64 49
-1377811.4032177187036723 -4803521.8596391417086124 3953582.2406505984254181 69 69 45
-1377807.6904481479432434 -4803521.7976693408563733 3953583.9932689834386110 93 90 85
-1377809.1059369221329689 -4803521.5344120627269149 3953583.5224874340929091 143 139 128
-1377806.8917794232256711 -4803521.9951688721776009 3953584.1628507226705551 159 151 140
-1377809.6643211017362773 -4803521.8554694727063179 3953582.9378747162409127 76 66 64
-1377808.8558926046825945 -4803521.6728134080767632 3953583.4350253250449896 126 123 116
-1377809.8819209651555866 -4803522.0097562838345766 3953582.6385398139245808 112 108 107
-1377807.0686510435771197 -4803521.9125105990096927 3953584.0866014538332820 156 140 124
-1377807.0430296091362834 -4803521.9656121749430895 3953584.0522524770349264 156 140 124
