ply
format ascii 1.0
element vertex 545
property double x
property double y
property double z
property uchar red
property uchar green
property uchar blue
end_header
-1377803.2736489963717759 -4803523.4603689843788743 3953583.7586533757857978 51 39 41
-1377802.4585774613078684 -4803521.2384478291496634 3953585.9648735863156617 80 92 78
-1377803.7250905430410057 -4803523.3319729221984744 3953583.4556139488704503 38 36 37
-1377800.6950429081916809 -4803521.0127334278076887 3953586.5445380471646786 169 166 133
-1377802.7034224753733724 -4803522.4039254859089851 3953584.5270292637869716 101 76 56
-1377800.5181427767965943 -4803521.4008984025567770 3953586.0980025418102741 145 146 112
-1377802.6975479272659868 -4803523.0423670234158635 3953583.7530616498552263 163 148 117
-1377801.0548182039055973 -4803522.7865726966410875 3953584.3605768638662994 98 106 65
-1377800.4140581318642944 -4803522.6493860548362136 3953584.6113572381436825 48 50 29
-1377802.6984689543023705 -4803523.3184577124193311 3953583.0706273838877678 174 177 170
-1377800.6181566005107015 -4803522.9155823783949018 3953584.2464553494937718 85 89 52
-1377801.5561679548118263 -4803523.1552020898088813 3953583.6514814039692283 74 75 41
-1377800.7051550575997680 -4803523.0222837598994374 3953584.1129902768880129 76 91 50
-1377802.8893082221038640 -4803523.5262826643884182 3953582.7715129018761218 161 149 135
-1377802.3809330572839826 -4803523.4024187447503209 3953583.0187621666118503 171 154 138
-1377802.2250745124183595 -4803523.5038474835455418 3953583.0130298556759953 174 158 142
-1377802.6868828290607780 -4803523.6912756226956844 3953582.6167075997218490 152 138 125
-1377802.3935964207630605 -4803523.6514816544950008 3953582.7530466541647911 151 133 119
-1377801.5389720371458679 -4803523.5356682082638144 3953583.2157921167090535 163 154 145
-1377801.9138750566635281 -4803523.6405120547860861 3953582.9618114237673581 154 142 130
-1377801.1302456930279732 -4803523.6168385474011302 3953583.2828145269304514 130 127 120
-1377800.4505477244965732 -4803523.4828185150399804 3953583.6224644123576581 89 96 54
-1377800.6640917879994959 -4803523.5837860368192196 3953583.4443036201409996 82 94 58
-1377801.5120050590485334 -4803523.7172724567353725 3953582.9657454225234687 163 155 142
-1377800.4560029127169400 -4803523.5706448247656226 3953583.5147837507538497 63 73 39
-1377801.1594143977854401 -4803523.6518752845004201 3953583.1123086395673454 133 130 121
-1377800.9588424162939191 -4803523.9900246476754546 3953582.8288720659911633 93 99 61
-1377800.7279001937713474 -4803524.0575380213558674 3953582.8739014593884349 70 84 48
-1377804.0973661022726446 -4803524.8726520966738462 3953584.8277625301852822 94 85 80
-1377803.5824354337528348 -4803524.1211813651025295 3953584.4896412463858724 231 240 237
-1377802.9912562954705209 -4803521.7423675162717700 3953585.9793508397415280 132 140 143
-1377803.4822736592032015 -4803523.7809434635564685 3953583.7264868193306029 50 39 33
-1377801.9427908132784069 -4803520.5600417964160442 3953586.8014399162493646 150 130 106
-1377803.1372233217116445 -4803522.2092865053564310 3953584.8572920574806631 131 122 117
-1377803.1485313978046179 -4803522.2007637228816748 3953584.8630486112087965 131 122 117
-1377800.8240802730433643 -4803520.2665335098281503 3953587.3499172660522163 116 121 80
-1377802.6774211772717535 -4803521.6646426506340504 3953585.2011110037565231 181 166 135
-1377802.6669882806017995 -4803521.6818910948932171 3953585.1845479621551931 181 166 135
-1377801.4548934660851955 -4803521.2571814134716988 3953586.0494144945405424 180 172 161
-1377801.9678266651462764 -4803521.2686380175873637 3953585.7946160612627864 185 173 159
-1377803.0414378945715725 -4803522.6323336390778422 3953584.2175889052450657 176 172 161
-1377801.2922139558941126 -4803521.2276227166876197 3953586.0539274350740016 116 127 87
-1377803.5214272113516927 -4803523.4104468673467636 3953583.3627163958735764 140 116 92
-1377801.1973368613980711 -4803521.6210277313366532 3953585.6016320395283401 130 131 89
-1377802.6515059522353113 -4803521.9657284831628203 3953584.6915443763136864 155 142 107
-1377801.1690837105270475 -4803522.9827723801136017 3953584.3692230666056275 248 247 229
-1377800.6644577449187636 -4803522.5445437198504806 3953584.6344708446413279 69 73 46
-1377801.0766461319290102 -4803522.6934207100421190 3953584.3221169575117528 235 238 227
-1377800.7423826539888978 -4803522.6857562363147736 3953584.4393222415819764 110 115 74
-1377801.5468844117131084 -4803523.3308913735672832 3953583.5007202993147075 152 148 139
-1377800.9492320055142045 -4803523.4591654464602470 3953583.5583163760602474 136 124 102
-1377802.3282027514651418 -4803523.7897766185924411 3953582.6231315438635647 158 145 129
-1377801.8123959214426577 -4803523.8123953575268388 3953582.7742906520143151 166 152 139
-1377801.7126313552726060 -4803523.8558243149891496 3953582.7493541943840683 144 134 122
-1377800.9841512881685048 -4803523.9102835711091757 3953582.9989381060004234 79 85 49
-1377803.0312926270999014 -4803524.0513315415009856 3953586.2158509986475110 130 103 92
-1377803.7236930252984166 -4803524.4919477459043264 3953584.4319462617859244 231 240 239
-1377803.7194427724462003 -4803523.9327444238588214 3953584.2043323777616024 66 68 46
-1377802.0245302510447800 -4803521.5878996225073934 3953585.3274817131459713 188 178 166
-1377800.7078048493713140 -4803521.5974571201950312 3953585.7953451727516949 160 161 129
-1377802.3313198031391948 -4803522.2573355762287974 3953584.4764142339117825 113 121 72
-1377801.5828043918590993 -4803522.5517696803435683 3953584.5147996302694082 149 137 123
-1377802.5664785755798221 -4803522.9764415193349123 3953583.6737714833579957 116 115 71
-1377801.6829971596598625 -4803523.0007860986515880 3953583.8693594816140831 174 161 144
-1377800.8049914049915969 -4803522.7560309804975986 3953584.2280652574263513 77 89 51
-1377801.7226551501080394 -4803523.3901856504380703 3953583.3517737234942615 169 165 156
-1377802.0950951760169119 -4803523.4614205276593566 3953583.0480153569951653 176 168 155
-1377803.6998724020086229 -4803525.0021765585988760 3953584.6307071512565017 84 54 43
-1377802.3630890375934541 -4803523.1954067153856158 3953583.3612000551074743 169 166 157
-1377801.5510594446677715 -4803523.1968346349895000 3953583.6507584536448121 90 96 60
-1377800.8425164353102446 -4803523.5273569906130433 3953583.4960720934905112 52 63 33
-1377801.8798608954530209 -4803523.6683176988735795 3953582.9017710541374981 149 135 124
-1377801.7171883406117558 -4803524.0578344324603677 3953582.6707433876581490 163 151 139
-1377801.0538094812072814 -4803523.9757939940318465 3953582.9139216793701053 152 150 135
-1377803.2763064398895949 -4803523.4736099690198898 3953584.0066521586850286 33 31 34
-1377800.5551143763586879 -4803523.7306292457506061 3953583.3538311864249408 52 57 35
-1377802.9594993875361979 -4803521.2248685816302896 3953586.3493707953020930 131 125 125
-1377801.0802241840865463 -4803522.9380488349124789 3953583.9870520830154419 69 86 42
-1377801.1022873490583152 -4803523.3553109047934413 3953583.5308777415193617 148 148 140
-1377800.9398973495699465 -4803523.8575293179601431 3953582.9781748200766742 86 98 60
-1377801.0557021356653422 -4803522.5739165022969246 3953584.7467497023753822 80 90 53
-1377801.4416520856320858 -4803522.8495234092697501 3953584.1592840719968081 247 224 190
-1377803.5851249415427446 -4803523.2523473175242543 3953584.0417844797484577 81 70 64
-1377801.9047488889191300 -4803523.1117330035194755 3953583.6907336362637579 179 167 155
-1377803.4927188067231327 -4803524.5926642091944814 3953585.1915601817891002 71 33 20
-1377800.7932493956759572 -4803523.4625002816319466 3953583.5160070592537522 48 65 33
-1377803.9332230093423277 -4803524.4723692489787936 3953585.6503635272383690 103 89 86
-1377803.1824108918663114 -4803524.9601608840748668 3953584.8285622079856694 30 26 27
-1377803.0548715963959694 -4803524.9539387989789248 3953584.8358103604987264 30 24 28
-1377805.2712562342640013 -4803522.4164433553814888 3953588.3359843548387289 132 117 112
-1377803.2373658993747085 -4803523.9950420977547765 3953585.8638063394464552 44 14 4
-1377803.6186288872268051 -4803523.6351262116804719 3953584.5863358206115663 191 201 203
-1377803.4954413825180382 -4803523.6498064957559109 3953583.6508437455631793 152 153 147
-1377803.3128180680796504 -4803522.8468399513512850 3953584.4425895344465971 184 192 194
-1377803.4423099753912538 -4803523.5453383019194007 3953583.6203183294273913 125 117 106
-1377803.3774517022538930 -4803522.9757620515301824 3953583.5737184230238199 26 22 19
-1377802.2763965630438179 -4803522.4298278111964464 3953584.2766477498225868 91 103 63
-1377802.4314673342742026 -4803522.8080720528960228 3953583.8241240535862744 107 111 60
-1377802.6911431276239455 -4803523.0595077471807599 3953583.4128137743100524 81 82 77
-1377803.1935357849579304 -4803523.0875156670808792 3953583.1495455754920840 98 95 90
-1377801.6718293041922152 -4803523.0101011143997312 3953583.8362016524188221 154 148 134
-1377802.4026328055188060 -4803523.2369494214653969 3953583.2848572493530810 141 137 126
-1377802.0618035176303238 -4803523.1972938403487206 3953583.4466002970002592 147 147 139
-1377801.6465896193403751 -4803523.1764773456379771 3953583.6007675924338400 133 131 119
-1377801.4517985780257732 -4803523.2241985592991114 3953583.6705599315464497 106 118 82
-1377802.0656532067805529 -4803523.4126321468502283 3953583.1865447089076042 139 135 124
-1377802.0010127725545317 -4803523.3712767818942666 3953583.2449817843735218 138 134 123
-1377803.3726761583238840 -4803524.5803400175645947 3953585.6846759319305420 79 79 87
-1377802.6887574116699398 -4803525.1382690882310271 3953584.7397188004106283 110 97 91
-1377804.7883566722739488 -4803523.4385630106553435 3953587.0015719654038548 114 103 101
-1377803.6146566614042968 -4803524.8734836941584945 3953584.7161004678346217 56 41 36
-1377803.3734506403561682 -4803524.8520059026777744 3953584.2747773067094386 81 89 92
-1377803.3305244971998036 -4803524.5752960722893476 3953584.1234527123160660 115 122 89
-1377803.2808318310417235 -4803524.5620968807488680 3953584.1279021380469203 70 74 51
-1377803.4354044673964381 -4803524.3775038430467248 3953584.1964506623335183 206 216 208
-1377803.6442743586376309 -4803524.0124385757371783 3953584.4559723855927587 218 227 224
-1377803.3805467460770160 -4803524.2026056312024593 3953583.8830954446457326 81 83 78
-1377803.2332879302557558 -4803524.1779118953272700 3953583.7472215103916824 208 217 214
-1377803.3253557013813406 -4803522.9435727279633284 3953584.7368520079180598 111 120 127
-1377803.3358171444851905 -4803523.0901454491540790 3953584.2039117431268096 182 191 190
-1377803.1298724522348493 -4803522.2975981635972857 3953584.8981067556887865 102 105 110
-1377803.5619813636876643 -4803523.4787260629236698 3953583.6548470151610672 40 34 34
-1377802.3461748233530670 -4803520.9594905637204647 3953586.2183200116269290 95 88 60
-1377802.9088181538973004 -4803522.6030759867280722 3953584.3048675889149308 119 97 84
-1377802.4807075061835349 -4803521.5821528621017933 3953585.2238867692649364 103 112 67
-1377803.1970354772638530 -4803523.2881216453388333 3953583.5188782908953726 28 24 21
-1377802.7030090272892267 -4803522.3176697315648198 3953584.4413598692044616 167 162 130
-1377802.7759285748470575 -4803522.2763431016355753 3953584.3952019582502544 71 64 38
-1377803.1491864388808608 -4803523.1186728272587061 3953583.4504251978360116 25 17 15
-1377802.9805686159525067 -4803523.3702793987467885 3953582.9085763343609869 136 122 109
-1377802.2532306099310517 -4803523.4333186214789748 3953583.0913314316421747 143 127 114
-1377802.0450570895336568 -4803523.4689023755490780 3953583.0997195616364479 132 125 115
-1377800.5766017863061279 -4803523.5132543556392193 3953583.5530837015248835 62 72 37
-1377803.9897713628597558 -4803525.0441121468320489 3953584.8740142178721726 102 71 53
-1377807.7453817310743034 -4803521.4585877126082778 3953590.1317676380276680 78 72 72
-1377805.8992338066454977 -4803522.4750768477097154 3953588.6135306470096111 80 70 69
-1377803.2155754060950130 -4803524.4410194670781493 3953584.0026089227758348 38 43 23
-1377803.3417428813409060 -4803524.0809225011616945 3953583.8420941941440105 210 219 218
-1377802.3149875507224351 -4803519.2201144341379404 3953588.7450518487021327 113 85 71
-1377803.0323629593476653 -4803522.3444517487660050 3953585.2646367787383497 131 138 144
-1377803.2228514687158167 -4803523.3092203307896852 3953583.8370347623713315 27 21 23
-1377803.4275410817936063 -4803523.0920172324404120 3953583.8100501359440386 52 37 32
-1377803.2035323132295161 -4803523.5991820506751537 3953583.4535830416716635 13 11 12
-1377802.7035230207256973 -4803522.2604956189170480 3953584.5362798408605158 167 154 120
-1377802.6477943619247526 -4803522.8033284721896052 3953583.9038379122503102 108 109 77
-1377802.4152742782607675 -4803522.4891530238091946 3953584.1286054165102541 154 144 119
-1377802.7043728781864047 -4803523.5170108173042536 3953582.9198999432846904 149 141 130
-1377800.8343992203008384 -4803523.4160171840339899 3953583.6576454713940620 61 76 33
-1377814.0104932740796357 -4803518.7259818548336625 3953594.5814934908412397 83 143 203
-1377804.0609501949511468 -4803523.6183666205033660 3953586.7840857808478177 101 86 79
-1377803.5839480182621628 -4803524.6339515214785933 3953584.8373506609350443 57 43 34
-1377803.6343217683024704 -4803523.0033187745139003 3953586.7575605614110827 80 72 59
-1377803.5494049212429672 -4803522.9731660652905703 3953586.6505131442099810 18 18 18
-1377803.8330437610857189 -4803523.4881133483722806 3953584.1137151941657066 49 50 44
-1377803.1015413003042340 -4803522.4690328557044268 3953584.5521693723276258 82 75 69
-1377803.2254168691579252 -4803523.2691724924370646 3953583.5066533531062305 23 19 18
-1377801.1814315936062485 -4803523.4590489221736789 3953583.4666555467993021 115 116 110
-1377818.9872111324220896 -4803519.9273167345672846 3953596.9629960926249623 103 127 161
-1377822.0378511545713991 -4803513.0695186732336879 3953602.2779474304988980 98 86 86
-1377803.5715988334268332 -4803524.2967688357457519 3953584.1713404343463480 54 57 36
-1377803.3320570152718574 -4803524.3927621636539698 3953584.0228357608430088 175 184 181
-1377803.3160726872738451 -4803523.3464023768901825 3953583.4313749712891877 12 13 15
-1377802.7177862143144011 -4803522.8688645726069808 3953583.9299749177880585 129 120 89
-1377803.1914707936812192 -4803524.2413620259612799 3953583.8945474228821695 195 204 199
-1377803.3652236571069807 -4803523.9558896245434880 3953584.0526171717792749 90 92 91
-1377803.5499714433681220 -4803523.0780007988214493 3953583.7343278517946601 43 41 42
-1377802.2801872985437512 -4803523.0931464545428753 3953583.4844152950681746 166 163 156
-1377801.6063990318216383 -4803523.5987340454012156 3953583.1064233365468681 145 146 140
-1377803.1843809669371694 -4803523.7586615644395351 3953583.4573868284933269 46 41 35
-1377802.4665568729396909 -4803522.3257755599915981 3953584.3263250612653792 74 80 44
-1377802.4580385426525027 -4803521.2463526595383883 3953586.0869062859565020 115 119 102
-1377803.2659186823293567 -4803524.5072545167058706 3953585.1470486638136208 78 57 40
-1377803.6494352733716369 -4803523.1430146247148514 3953586.9951401618309319 39 20 14
-1377803.2209204116370529 -4803522.2460739612579346 3953585.0238148206844926 104 109 113
-1377803.2187115384731442 -4803522.7668645558878779 3953584.5259229890070856 100 100 102
-1377803.0938330106437206 -4803522.0154623175039887 3953585.2031691446900368 102 102 102
-1377802.4822882413864136 -4803522.9144300026819110 3953583.7410000520758331 144 144 110
-1377801.2655176804400980 -4803522.9487912775948644 3953584.0432897615246475 72 74 61
-1377801.6432064957916737 -4803523.1103088082745671 3953583.7258646111004055 78 92 59
-1377802.0489125535823405 -4803523.4403311014175415 3953583.1775946132838726 139 137 125
-1377800.7625380335375667 -4803523.4283084748312831 3953583.5931314867921174 47 56 25
-1377805.3028369066305459 -4803522.1753350412473083 3953588.2906511458568275 16 7 10
-1377804.4881407693028450 -4803523.5260180598124862 3953586.4991827486082911 61 27 17
-1377803.4431017399765551 -4803522.7700789701193571 3953585.2058573430404067 47 40 32
-1377802.9884114763699472 -4803522.0657553207129240 3953584.6191285103559494 61 47 38
-1377801.7380790298338979 -4803523.3710453677922487 3953583.3490056646987796 148 149 143
-1377801.8338611240033060 -4803523.4148991378024220 3953583.2295305826701224 128 120 109
-1377807.8241623593494296 -4803525.0506805256009102 3953586.3158248295076191 110 131 148
-1377806.0101001858711243 -4803523.8011448150500655 3953584.5968319145031273 119 105 76
-1377805.8418799599166960 -4803522.3890804685652256 3953583.3555095558986068 184 172 150
-1377803.2790855451021343 -4803523.7579536819830537 3953583.3241169992834330 24 24 24
-1377805.7620994965545833 -4803522.4830660615116358 3953583.1964439549483359 142 127 122
-1377805.7592918502632529 -4803522.4434376098215580 3953583.1779510136693716 28 19 14
-1377804.7862041753251106 -4803522.8222261127084494 3953583.0218000006861985 161 157 146
-1377804.1232466979417950 -4803523.0738287121057510 3953582.9282179768197238 166 163 156
-1377803.8687299832236022 -4803523.2434105742722750 3953582.7756053581833839 152 143 134
-1377803.5354879591614008 -4803523.3681681053712964 3953582.7484609675593674 131 123 112
-1377803.6946601064410061 -4803523.2643680162727833 3953582.7216111738234758 133 122 116
-1377807.8413825826719403 -4803524.7454643016681075 3953586.0567955928854644 247 255 255
-1377807.9878129090648144 -4803524.6487669665366411 3953586.2045589988119900 146 173 194
-1377818.8752021945547312 -4803519.7360588153824210 3953594.5541631062515080 92 124 171
-1377805.5719325665850192 -4803524.0391083331778646 3953584.8617068682797253 29 28 26
-1377806.8766390059608966 -4803523.7493648836389184 3953584.7519741738215089 209 219 220
-1377806.8230167150031775 -4803523.7743665613234043 3953584.7403697846457362 209 219 220
-1377803.3582591861486435 -4803524.6554756220430136 3953584.1869241776876152 51 52 47
-1377805.7448382447473705 -4803523.2131805596873164 3953584.1712035289965570 84 90 86
-1377805.8317542283330113 -4803522.8824054002761841 3953583.7706937734037638 178 168 156
-1377804.9329116030130535 -4803523.1080988170579076 3953583.8820850793272257 53 47 33
-1377805.6790605243295431 -4803522.5869859289377928 3953583.5419349814765155 188 184 173
-1377805.9541003552731127 -4803522.4321854617446661 3953583.4137896462343633 196 186 177
-1377803.3290453820955008 -4803522.9800008377060294 3953583.5918264393694699 87 78 69
-1377803.7277763630263507 -4803523.4857942890375853 3953582.5569920497946441 145 138 128
-1377803.6166634564287961 -4803523.4826055765151978 3953582.5469445483759046 144 134 124
-1377802.2506356346420944 -4803523.2155950730666518 3953583.3620316749438643 138 129 120
-1377803.1864048496354371 -4803523.7849660115316510 3953582.3393627936020494 129 116 107
-1377802.7571548561099917 -4803523.8261281363666058 3953582.4223850197158754 123 113 101
-1377822.3268648658413440 -4803521.1287695067003369 3953595.5524950283579528 60 107 159
-1377805.6916091612074524 -4803525.0170282823964953 3953585.1726679187268019 122 90 69
-1377805.3146702109370381 -4803525.0430711219087243 3953585.0878734211437404 102 75 58
-1377804.7576924115419388 -4803525.0006193863227963 3953585.0446024965494871 105 73 52
-1377806.2416401933878660 -4803524.0508961286395788 3953584.8612930085510015 160 149 127
-1377805.0794954809825867 -4803523.0718132453039289 3953583.8664000108838081 49 41 38
-1377805.1954299218486995 -4803522.7914465619251132 3953583.6776824854314327 194 178 163
-1377806.0015402829740196 -4803522.4705989854410291 3953583.5012090210802853 187 178 163
-1377803.9083517394028604 -4803523.3622655570507050 3953582.6260178741067648 139 129 120
-1377803.6315116113983095 -4803523.4478257289156318 3953582.6206183317117393 151 144 136
-1377803.6705849892459810 -4803523.4628706518560648 3953582.5764184333384037 131 121 112
-1377802.5630436809733510 -4803523.7907427027821541 3953582.5578888072632253 129 115 102
-1377803.5322683665435761 -4803525.0359796890988946 3953584.8945493553765118 29 25 26
-1377806.0366728480439633 -4803523.6952104410156608 3953584.5182156548835337 137 123 96
-1377806.0230072897393256 -4803522.8659854829311371 3953583.7895139846950769 54 45 40
-1377805.7332112030126154 -4803522.9231932675465941 3953583.8190312432125211 52 39 30
-1377805.6138301200699061 -4803522.4426368111744523 3953583.3806266435422003 183 178 158
-1377802.8051062205340713 -4803523.5525806928053498 3953582.7264853296801448 132 118 107
-1377802.7141150448005646 -4803523.8084407970309258 3953582.4865849060006440 126 116 104
-1377821.1255043251439929 -4803522.5687757302075624 3953598.2883664425462484 38 91 159
-1377818.9551683049649000 -4803519.1638607652857900 3953594.7556313187815249 64 123 179
-1377805.3150947841349989 -4803522.7862341897562146 3953583.6410511317662895 200 189 171
-1377802.2546840759459883 -4803524.4898078078404069 3953582.2190490709617734 129 117 103
-1377802.2208256439771503 -4803524.4300270071253181 3953582.2395960702560842 106 93 85
-1377802.2208256439771503 -4803524.4300270071253181 3953582.2395960702560842 106 93 85
-1377802.1767441963311285 -4803524.5509335566312075 3953582.1599030913785100 104 94 85
-1377802.4450504311826080 -4803524.0965767577290535 3953582.2199004041031003 155 151 140
-1377821.0646866508759558 -4803522.1221017334610224 3953597.4652794655412436 48 102 164
-1377801.4468770988751203 -4803523.6197447516024113 3953583.1236446038819849 105 108 101
-1377816.5756977326236665 -4803520.5495445486158133 3953595.4363485784269869 88 110 147
-1377805.9143185315188020 -4803524.1899529658257961 3953584.9563268451020122 220 230 229
-1377803.0975924413651228 -4803523.5548741174861789 3953582.6223169993609190 92 81 75
-1377821.7922668526880443 -4803521.6348389983177185 3953597.2491956325247884 109 128 160
-1377802.0160910203121603 -4803524.0528783136978745 3953582.4173250491730869 148 145 136
-1377803.4021231643855572 -4803523.2283122083172202 3953583.2677378198131919 21 22 27
-1377820.0688396671321243 -4803523.6010565645992756 3953593.7789273401722312 16 18 33
-1377823.0881352929864079 -4803524.1341200247406960 3953591.5009517292492092 70 106 156
-1377822.2412951872684062 -4803523.7970804022625089 3953591.9041314646601677 31 37 51
-1377807.9724843718577176 -4803525.2061601085588336 3953586.3007961660623550 58 60 72
-1377809.3326738346368074 -4803524.6097404919564724 3953585.2976435590535402 129 71 34
-1377803.3946722813416272 -4803524.3062741849571466 3953585.9036653204821050 67 56 52
-1377806.6425484630744904 -4803524.2475791135802865 3953585.1131363972090185 220 230 231
-1377806.4463766515254974 -4803524.2401039898395538 3953585.0883176466450095 226 236 235
-1377809.2492336602881551 -4803523.4691746318712831 3953584.7814044891856611 209 220 222
-1377809.8257609864231199 -4803521.9735439075157046 3953583.4427805938757956 161 154 144
-1377807.3698278160300106 -4803522.5893400683999062 3953583.7338753379881382 217 218 210
-1377807.8691178273875266 -4803522.3881021067500114 3953583.6843603341840208 58 49 40
-1377807.1169850446749479 -4803522.6109632067382336 3953583.7044980721548200 46 41 37
-1377806.3482347978278995 -4803522.8345827916637063 3953583.8060847343876958 204 197 181
-1377806.7489930281881243 -4803522.7132124546915293 3953583.7281046109274030 54 45 40
-1377806.5262646342162043 -4803522.7001061830669641 3953583.7347980756312609 179 164 145
-1377807.8185864505358040 -4803522.2927358495071530 3953583.5282793752849102 88 72 57
-1377812.8078863995615393 -4803521.6647148421034217 3953581.7477987543679774 167 162 133
-1377811.9924738742411137 -4803521.5968852667137980 3953582.0979928076267242 146 141 112
-1377809.3690286057535559 -4803521.7055766200646758 3953583.1628402792848647 23 18 12
-1377807.6114167405758053 -4803522.2558092363178730 3953583.4430765472352505 36 26 24
-1377806.7643938348628581 -4803522.5087659088894725 3953583.5643215351738036 100 91 76
-1377807.5232836098875850 -4803522.2407473521307111 3953583.4473661128431559 193 190 183
-1377807.7463768294546753 -4803522.1209243088960648 3953583.3208311242051423 169 163 147
-1377808.5037554174195975 -4803521.3483806671574712 3953583.7473204666748643 63 53 43
-1377807.7637749630957842 -4803522.1017747484147549 3953583.2426103069446981 67 54 45
-1377809.0920947443228215 -4803522.0450102426111698 3953582.4295514542609453 165 167 162
-1377809.1506841965019703 -4803522.8028174294158816 3953581.5482039549387991 160 162 159
-1377807.5283681822475046 -4803521.9486154709011316 3953583.1639155880548060 182 184 171
-1377807.4512709570117295 -4803521.9476860528811812 3953583.2126821461133659 64 56 45
-1377807.6850504307076335 -4803521.9033252969384193 3953583.1013404177501798 197 198 184
-1377807.2737452960573137 -4803522.3311584135517478 3953582.7719567688181996 84 93 64
-1377807.2569749576505274 -4803522.6507045039907098 3953582.4230267633683980 152 151 121
-1377805.7718270714394748 -4803522.7475988864898682 3953583.1273509007878602 46 25 20
-1377807.5516900473739952 -4803523.0803895350545645 3953581.7909430819563568 77 79 55
-1377807.1568506311159581 -4803523.1944719590246677 3953581.8272247263230383 136 138 114
-1377805.3307262388989329 -4803522.6963615240529180 3953582.9822983252815902 130 120 111
-1377805.6423898774664849 -4803523.4163231924176216 3953582.0112447938881814 112 103 94
-1377805.2418760072905570 -4803523.4919789927080274 3953582.0155701516196132 96 87 80
-1377804.5271557031664997 -4803522.9286054763942957 3953582.9520143135450780 102 97 91
-1377805.1047025835141540 -4803523.4373673023656011 3953582.1172368121333420 145 137 124
-1377804.9268212665338069 -4803523.7563499873504043 3953581.8035815143957734 111 107 98
-1377803.5429485165514052 -4803524.0903040524572134 3953581.8767397729679942 127 123 112
-1377802.5035231634974480 -4803524.4885814562439919 3953582.1440485552884638 122 110 98
-1377803.1849160301499069 -4803524.3226380106061697 3953581.7136064888909459 115 111 102
-1377802.5461155909579247 -4803524.2944532316178083 3953581.9578289696946740 123 116 108
-1377802.2503593536093831 -4803525.2357115894556046 3953581.5356028382666409 90 85 79
-1377802.2389872176572680 -4803525.3045907644554973 3953581.4756673783995211 78 70 67
-1377802.1654930871445686 -4803525.3164920741692185 3953581.4826956298202276 87 79 76
-1377802.1073769852519035 -4803525.2300221696496010 3953581.5846168883144855 78 73 70
-1377820.7562254921067506 -4803523.7442411351948977 3953595.2237127306871116 46 66 103
-1377820.6140284733846784 -4803524.0078316256403923 3953594.4202673193067312 68 90 129
-1377823.2328749829903245 -4803524.5354065708816051 3953592.0999992205761373 57 93 143
-1377824.5700614843517542 -4803524.2425317354500294 3953592.2385821635834873 79 117 164
-1377820.7274567177519202 -4803522.2821256760507822 3953592.3565653655678034 27 28 30
-1377808.3993753071408719 -4803524.7394037405028939 3953585.7358717476017773 41 23 13
-1377808.8056484542321414 -4803524.1448924038559198 3953585.2756910100579262 223 229 229
-1377810.0215765833854675 -4803523.5587162440642715 3953584.8909290996380150 108 111 118
-1377809.3613543792162091 -4803523.5045816879719496 3953584.7996116364374757 226 237 239
-1377806.1447571592871100 -4803523.9744470324367285 3953584.8115492267534137 49 41 28
-1377811.0261301200371236 -4803522.9198655616492033 3953584.4074006006121635 165 154 136
-1377810.6489614464808255 -4803522.9482611194252968 3953584.3460210296325386 43 36 30
-1377827.9166612988337874 -4803518.5743880346417427 3953584.1974974488839507 70 57 49
-1377809.4462070278823376 -4803522.5643923962488770 3953583.9113274575211108 128 123 104
-1377809.4808846348896623 -4803522.4257309669628739 3953583.9128732341341674 97 95 83
-1377808.5051483272109181 -4803522.6909245802089572 3953583.9742631097324193 203 213 214
-1377809.4127764785662293 -4803522.0764938024803996 3953583.5437816660851240 53 44 35
-1377808.1223721757996827 -4803522.3782197879627347 3953583.6395172076299787 66 52 39
-1377811.5300026168115437 -4803521.7650433154776692 3953582.7538126730360091 63 46 39
-1377807.2966398431453854 -4803522.5736115453764796 3953583.6868308251723647 44 41 34
-1377807.9096448943018913 -4803522.3555337255820632 3953583.4320195582695305 133 111 97
-1377813.0524429921060801 -4803521.4149581352248788 3953581.9119466627016664 160 151 118
-1377809.3741071857511997 -4803521.7987550124526024 3953583.1340748644433916 13 20 26
-1377809.3790959236212075 -4803521.7973044766113162 3953582.9561970173381269 26 54 58
-1377807.7857716826256365 -4803522.1807701531797647 3953583.2476975964382291 194 181 164
-1377807.7417929410003126 -4803522.0504013076424599 3953583.3261174452491105 56 52 43
-1377807.1347868265584111 -4803522.2378793256357312 3953583.4000191283412278 175 172 165
-1377807.9856082620099187 -4803522.0650472519919276 3953583.0559377525933087 182 182 172
-1377807.7355624923948199 -4803522.0134898554533720 3953583.2435776409693062 147 136 116
-1377807.5194726127665490 -4803521.9770967578515410 3953583.2324515478685498 180 180 172
-1377807.7986216214485466 -4803521.9320153668522835 3953583.0431023398414254 189 195 185
-1377807.6246464883442968 -4803522.4134367806836963 3953582.5165442610159516 181 180 150
-1377807.3182066951412708 -4803522.3814750509336591 3953582.6992555926553905 73 80 49
-1377807.4692018628120422 -4803523.0736925574019551 3953581.8503577904775739 83 83 55
-1377806.7306051712948829 -4803523.0087831001728773 3953582.2093546334654093 150 154 127
-1377806.5766148499678820 -4803522.5747472671791911 3953582.7034628274850547 45 51 23
-1377806.6094616842456162 -4803522.7861663652583957 3953582.4192217416130006 75 77 53
-1377805.9379477936308831 -4803523.6735637262463570 3953581.7554290718398988 101 101 93
-1377805.1837332074064761 -4803522.7672797627747059 3953582.9437397820875049 174 167 157
-1377805.2499371019657701 -4803522.9243341488763690 3953582.7200028011575341 162 159 154
-1377805.1215619246941060 -4803522.8470924468711019 3953582.8190108207054436 140 132 129
-1377804.9332697011996061 -4803523.3578095287084579 3953582.3006679425016046 141 131 121
-1377805.0173400309868157 -4803523.7941127410158515 3953581.7383845970034599 137 134 125
-1377804.3319785646162927 -4803523.2951740389689803 3953582.4695585845038295 137 127 118
-1377804.0831798822619021 -4803523.7544100554659963 3953582.1185170128010213 118 108 98
-1377803.4623301371466368 -4803524.1623479882255197 3953581.8217985602095723 106 97 90
-1377803.3800890906713903 -4803524.1799978949129581 3953581.8260967843234539 131 127 116
-1377802.9275976645294577 -4803525.0405979147180915 3953581.5204932102933526 78 73 69
-1377802.5837081328500062 -4803524.8773065898567438 3953581.8172133555635810 122 115 107
-1377803.2619650061242282 -4803524.2545358203351498 3953581.7642137170769274 126 119 111
-1377802.7755801656749099 -4803525.2327678482979536 3953581.4157496644183993 81 77 74
-1377802.6076318044215441 -4803525.2528976825997233 3953581.3925050338730216 86 81 77
-1377802.6168237836100161 -4803525.2163827400654554 3953581.3875384004786611 86 81 77
-1377802.3592714723199606 -4803525.0606961762532592 3953581.6727022654376924 119 111 100
-1377802.2444818730000407 -4803525.0145452572032809 3953581.7168200286105275 107 98 93
-1377802.3288747221231461 -4803525.2217426467686892 3953581.5013624262064695 95 90 86
-1377802.2220038734376431 -4803525.2299308106303215 3953581.5611663064919412 112 105 97
-1377802.1691902789752930 -4803525.2045339839532971 3953581.5829699877649546 88 80 78
-1377819.9726352561265230 -4803524.1208820613101125 3953593.5582674224860966 71 108 150
-1377808.5092496674042195 -4803524.3587666675448418 3953585.3989419727586210 27 22 26
-1377808.3161875768564641 -4803524.3317659487947822 3953585.3476409204304218 154 143 121
-1377806.2064606838393956 -4803522.2236921666190028 3953588.6931244451552629 108 91 83
-1377808.6345162827055901 -4803524.1651975456625223 3953585.3035536734387279 76 66 54
-1377808.9428657102398574 -4803523.8651506956666708 3953585.0450106034986675 212 224 224
-1377803.5656850754749030 -4803523.6498457966372371 3953585.9613604466430843 19 16 11
-1377812.0697719880845398 -4803522.8351339260116220 3953584.4381601302884519 56 20 8
-1377806.6776752907317132 -4803523.6829064479097724 3953584.6672782627865672 223 233 234
-1377808.2821463055443019 -4803523.0504718609154224 3953584.2846733024343848 229 241 241
-1377808.6849566369783133 -4803522.6536495797336102 3953583.9313087761402130 94 84 72
-1377809.1146095460280776 -4803522.4689821181818843 3953583.8704792656935751 224 234 235
-1377808.5930081971455365 -4803522.4580667708069086 3953583.8157987231388688 211 223 223
-1377806.3771655892487615 -4803522.7626883089542389 3953583.7809564229100943 51 42 33
-1377806.2647167199756950 -4803522.7351808417588472 3953583.7481313319876790 171 158 141
-1377808.3178315851837397 -4803522.2147518061101437 3953583.2541451323777437 180 161 144
-1377806.7091204342432320 -4803522.5490561630576849 3953583.6546616167761385 186 181 162
-1377807.8077295133844018 -4803522.2386104995384812 3953583.4133486193604767 74 60 49
-1377807.8241232063155621 -4803522.2266167122870684 3953583.4179706857539713 67 53 44
-1377810.8067569460254163 -4803521.7711243797093630 3953582.3939368436113000 92 92 92
-1377809.0117198724765331 -4803522.1308337571099401 3953582.7665202897042036 15 96 117
-1377806.9244821872562170 -4803522.3964221654459834 3953583.5103387925773859 177 165 149
-1377808.5486486984882504 -4803522.1093823704868555 3953582.5889146551489830 98 101 70
-1377807.7651646926533431 -4803521.9382968116551638 3953583.1401131232269108 62 46 33
-1377808.0852323852013797 -4803522.9379911329597235 3953581.8259933004155755 88 93 71
-1377808.0668127881363034 -4803522.6685096584260464 3953582.0478577734902501 133 136 107
-1377805.3488428976852447 -4803522.5593792330473661 3953583.4850249812006950 175 159 143
-1377806.6200467930175364 -4803523.0316308205947280 3953582.1390457446686924 59 63 40
-1377806.5772185351233929 -4803523.3418631013482809 3953581.8025099136866629 41 48 30
-1377806.4400345236063004 -4803523.0637191729620099 3953582.1306861527264118 132 132 122
-1377806.0431422505062073 -4803522.9370517116039991 3953582.4036020631901920 108 101 95
-1377805.5198492447379977 -4803523.4634918412193656 3953581.9744194811210036 143 139 130
-1377804.4128808518871665 -4803523.4602179937064648 3953582.3465263913385570 122 113 104
-1377804.4947552522644401 -4803523.6771013624966145 3953582.0258887680247426 130 117 108
-1377803.8718047377187759 -4803524.0674111861735582 3953581.8043112903833389 115 115 103
-1377802.6513725908007473 -4803523.2791962521150708 3953583.1559140193276107 128 122 110
-1377803.4735274417325854 -4803524.0392875755205750 3953581.9768420676700771 111 102 93
-1377803.4101326602976769 -4803524.0102927973493934 3953582.0195166706107557 139 131 118
-1377802.9549138345755637 -4803525.0407325243577361 3953581.4922382743097842 77 73 70
-1377802.7064536474645138 -4803524.6459491252899170 3953581.9457898205146194 105 92 84
-1377802.6822025810834020 -4803524.8955758577212691 3953581.7524845660664141 120 113 105
-1377802.6099322082009166 -4803524.8761981977149844 3953581.7906126710586250 120 113 105
-1377802.6612698389217257 -4803525.0259937793016434 3953581.6357164415530860 90 87 80
-1377802.9157390960026532 -4803524.2074263682588935 3953581.9407879444770515 129 129 119
-1377802.5259317213203758 -4803525.2968986444175243 3953581.4341369378380477 78 75 70
-1377802.4959699192550033 -4803525.3191813267767429 3953581.4022092153318226 89 86 81
-1377802.2645084641408175 -4803525.2217125520110130 3953581.5577416308224201 73 68 64
-1377809.7965125346090645 -4803524.3012616140767932 3953585.1255459939129651 110 56 22
-1377808.1345668910071254 -4803523.5705522065982223 3953584.6286186529323459 98 79 75
-1377806.7691605591680855 -4803523.1130667170509696 3953584.1992082130163908 201 211 212
-1377807.5350013086572289 -4803522.6875142222270370 3953583.8797744992189109 190 199 198
-1377807.8189902729354799 -4803522.1772108217701316 3953583.2957929028198123 191 180 162
-1377808.8340551359578967 -4803522.0579589381814003 3953582.4354826025664806 117 118 84
-1377806.5921829813160002 -4803522.2145699895918369 3953583.3159103151410818 186 177 160
-1377807.2567600163165480 -4803523.0159137286245823 3953581.9088467909023166 74 80 54
-1377805.8360072241630405 -4803522.6959316246211529 3953583.0081055928021669 135 105 94
-1377806.5446979312691838 -4803523.1777636790648103 3953582.0059295562095940 45 47 33
-1377805.7049532309174538 -4803522.8800770835950971 3953582.6505874735303223 151 148 143
-1377803.6348935118876398 -4803523.4472652617841959 3953583.2638526102527976 118 91 70
-1377805.1094235177151859 -4803523.3231146708130836 3953582.2290817000903189 151 138 129
-1377803.5550808806437999 -4803524.0373212294653058 3953581.9591354327276349 142 135 125
-1377803.1199062576051801 -4803523.8847416136413813 3953582.2492816662415862 140 130 120
-1377802.7372055440209806 -4803524.8475402146577835 3953581.8021571566350758 93 86 78
-1377803.1687346238177270 -4803523.9961192086338997 3953582.0988806653767824 134 125 110
-1377802.2400019285269082 -4803524.5394042544066906 3953582.2551722698844969 115 105 95
-1377802.3331191290635616 -4803525.2544900756329298 3953581.4958494948223233 70 66 65
-1377801.9977331825066358 -4803524.0465736417099833 3953582.4272425053641200 153 153 143
-1377817.9398030755110085 -4803519.5481862630695105 3953596.0633988264016807 120 143 175
-1377819.1213914342224598 -4803519.6215434530749917 3953595.1579670598730445 84 129 184
-1377809.3081761298235506 -4803524.4457798739895225 3953585.5282259532250464 79 37 15
-1377809.5626712497323751 -4803524.4286681879311800 3953585.2563296984881163 116 60 23
-1377806.9961270717903972 -4803523.4653264349326491 3953584.5033244807273149 228 238 239
-1377809.5788132296875119 -4803522.2376574911177158 3953582.7865150175057352 173 158 117
-1377809.2413170365616679 -4803522.1414051698520780 3953582.8104176558554173 0 61 82
-1377808.2289163353852928 -4803522.0229095425456762 3953583.0233986135572195 21 21 23
-1377806.5839012407232076 -4803522.7054100222885609 3953582.5896855117753148 73 78 48
-1377805.6576358024030924 -4803523.1984648322686553 3953582.1867678929120302 148 140 129
-1377805.0205699105281383 -4803523.5515777664259076 3953581.9923310815356672 131 123 110
-1377804.0365129441488534 -4803523.3314142068848014 3953582.6084330929443240 136 123 114
-1377802.9100908343680203 -4803524.7734960373491049 3953581.7336157029494643 97 90 84
-1377808.2864724248647690 -4803524.4626741278916597 3953585.3802858255803585 17 13 14
-1377812.6798146022483706 -4803522.0232813004404306 3953584.0151631254702806 69 67 54
-1377807.9624256861861795 -4803522.5235698251053691 3953583.7479312848299742 233 242 239
-1377805.5668775932863355 -4803523.0196858448907733 3953583.9469405892305076 239 245 241
-1377807.4370347538497299 -4803522.5323850950226188 3953582.5070337578654289 169 165 136
-1377804.9012646009214222 -4803523.1959142470732331 3953582.4859579778276384 113 104 97
-1377804.0758381055202335 -4803523.5918742790818214 3953582.3228688878007233 116 106 96
-1377803.8184981264639646 -4803523.4913559034466743 3953582.4965490680187941 143 133 124
-1377802.7955292819533497 -4803523.8256253898143768 3953582.4635005327872932 142 129 120
-1377810.1278379813302308 -4803522.9534204024821520 3953584.3627333343029022 208 220 220
-1377809.9695583048742265 -4803522.6285517280921340 3953584.0528552019968629 177 187 186
-1377807.0509620311204344 -4803522.6957093439996243 3953583.8478684695437551 229 239 238
-1377805.8349835905246437 -4803522.5062865866348147 3953583.1324259801767766 77 43 34
-1377803.1347389132715762 -4803522.4393216315656900 3953584.4439281732775271 79 68 62
-1377803.8564590602181852 -4803523.5901229726150632 3953582.3432590896263719 144 134 124
-1377802.5598385219927877 -4803525.0843011606484652 3953581.6126092062331736 94 91 84
-1377802.5064717656932771 -4803525.1799545809626579 3953581.4709884701296687 109 102 94
-1377802.1745432678144425 -4803525.1786843165755272 3953581.6185909225605428 115 108 98
-1377808.7546952001284808 -4803523.0900488123297691 3953584.4867638079449534 231 241 242
-1377812.4706036639399827 -4803521.5258309617638588 3953582.0063538788817823 129 120 87
-1377809.4840427574235946 -4803521.7403832264244556 3953582.9790939339436591 34 55 58
-1377802.5661250045523047 -4803524.7460101116448641 3953581.9138826858252287 104 94 84
-1377802.7389860502444208 -4803525.1919395998120308 3953581.3973291907459497 117 110 102
-1377819.0714738301467150 -4803524.3001627139747143 3953592.2917434452101588 58 83 123
-1377809.7674909916240722 -4803522.1232269722968340 3953583.7564673400484025 215 225 226
-1377802.0557775020133704 -4803524.7977632954716682 3953582.0087251183576882 122 113 104
-1377822.3059868691489100 -4803524.5590412560850382 3953596.0849855714477599 90 104 131
-1377818.9387624659575522 -4803521.2247551959007978 3953596.4624270135536790 76 79 86
-1377808.5455744734499604 -4803522.5352088576182723 3953583.7570538860745728 218 228 227
-1377818.2549071775283664 -4803523.1066589243710041 3953595.0976572781801224 65 90 131
-1377803.6743511673994362 -4803523.6040193531662226 3953585.3474891786463559 104 112 115
-1377833.9544774161186069 -4803524.3273145938292146 3953586.6839858330786228 7 23 48
-1377808.9367979054804891 -4803524.8056735210120678 3953585.3399539701640606 125 71 33
-1377807.5519707414787263 -4803523.9350209180265665 3953585.0118126850575209 214 226 226
-1377805.6704371268860996 -4803523.9908757908269763 3953584.8460949389263988 179 184 180
-1377811.3165662938263267 -4803522.6853189216926694 3953584.3292326661758125 65 65 65
-1377821.5168121012393385 -4803519.3355035055428743 3953581.9072063313797116 147 148 130
-1377809.8080638619139791 -4803522.1026871893554926 3953583.5103005929850042 181 175 159
-1377809.6278758700937033 -4803522.1029072804376483 3953583.4889028752222657 65 58 48
-1377809.7995953382924199 -4803521.9867359437048435 3953583.4417455391958356 161 154 144
-1377807.8395972799044102 -4803522.2607071343809366 3953583.3402925236150622 86 68 54
-1377807.3062849009875208 -4803522.7184042632579803 3953582.3122591571882367 147 147 119
-1377803.1306972682941705 -4803523.6355793783441186 3953582.5064420835115016 128 116 104
-1377802.0342397470958531 -4803523.5198226803913713 3953583.0467802551575005 162 158 146
-1377823.8083477204199880 -4803524.3297678735107183 3953591.9287957809865475 79 117 164
-1377835.6453926225658506 -4803524.6121453791856766 3953586.9634462893009186 3 17 44
-1377833.8523061699233949 -4803524.2100232942029834 3953586.9773314930498600 67 133 194
-1377833.1447412115521729 -4803523.2299261819571257 3953586.2969869701191783 30 39 54
-1377833.1260747609194368 -4803523.1566811185330153 3953585.9467909047380090 41 45 54
-1377803.3666891867760569 -4803524.8697792347520590 3953585.1307452316395938 104 87 79
-1377833.7454369778279215 -4803521.5375803764909506 3953584.6826223270036280 44 48 59
-1377833.7614583750255406 -4803521.6652576876804233 3953584.3535993839614093 13 18 22
-1377835.2422777488827705 -4803519.3966280398890376 3953583.4832631219178438 191 205 214
-1377803.6627113297581673 -4803524.0706533314660192 3953583.9659217894077301 58 51 43
-1377821.3988398651126772 -4803519.7259377362206578 3953581.5900593344122171 125 111 84
-1377821.8573874675203115 -4803519.9858092935755849 3953581.0198748228140175 135 135 123
-1377816.1943812933750451 -4803520.6170696718618274 3953581.8803348680958152 183 178 149
-1377812.3725557918660343 -4803521.9591046525165439 3953581.3936272496357560 106 104 81
-1377804.7513828992377967 -4803522.8473345600068569 3953583.6511172084137797 194 191 182
-1377806.1230076549109071 -4803522.8284151516854763 3953582.4976654457859695 109 102 94
-1377805.6805900901090354 -4803522.6322302715852857 3953582.9242676366120577 172 167 161
-1377803.4067145411390811 -4803523.4131029704585671 3953583.4839856619946659 99 85 72
-1377804.5680863389279693 -4803523.5036660004407167 3953582.1752615356817842 122 112 100
-1377803.7399918758310378 -4803523.2707747761160135 3953582.7403706558980048 157 153 144
-1377803.6713097211904824 -4803523.7640108522027731 3953582.1818248271010816 142 133 118
-1377803.5729275241028517 -4803524.0992060825228691 3953581.8008238063193858 106 97 90
-1377803.2590909544378519 -4803524.2653566217049956 3953581.7200529901310802 116 112 101
-1377808.6011769464239478 -4803525.0922926198691130 3953585.5292928675189614 123 91 66
-1377833.3587636302690953 -4803524.0141591345891356 3953586.8091501435264945 15 28 47
-1377833.1431722163688391 -4803523.8108764104545116 3953586.4113787100650370 82 143 198
-1377832.1237023971043527 -4803521.2703049732372165 3953583.6754831294529140 230 243 252
-1377807.1724418296944350 -4803523.8233451172709465 3953584.8756552422419190 227 237 238
-1377808.3885587728582323 -4803523.5899929907172918 3953584.6843986022286117 223 233 234
-1377828.1898748707026243 -4803518.3388583688065410 3953584.2923462768085301 68 55 49
-1377803.6594238809775561 -4803523.8751184297725558 3953584.2470762869343162 40 45 39
-1377820.2603235577698797 -4803519.5115714520215988 3953581.9671503379940987 119 107 85
-1377809.1674281856976449 -4803521.9098746655508876 3953582.6005673795007169 148 150 147
-1377808.3022970296442509 -4803522.7977483468130231 3953581.7510559665970504 156 160 135
-1377806.7908724085427821 -4803522.8925370033830404 3953582.2181122442707419 88 92 67
-1377806.7255471204407513 -4803523.0328587619587779 3953581.9330732715316117 125 124 119
-1377804.4015952793415636 -4803523.2873244294896722 3953582.5122328395955265 120 110 100
-1377804.4002463803626597 -4803523.8693882981315255 3953581.8173072361387312 130 127 120
-1377803.4938036052044481 -4803523.8951354371383786 3953582.0876591568812728 145 135 123
-1377802.9834268204867840 -4803523.9665097827091813 3953582.1983636971563101 130 120 108
-1377801.9889511081855744 -4803524.6731773735955358 3953582.1092242244631052 107 97 88
-1377833.1502074170857668 -4803525.0664780950173736 3953587.2883015093393624 15 19 30
-1377808.4623370578046888 -4803524.3197234161198139 3953585.2991597759537399 156 146 119
-1377830.5379757094196975 -4803520.1031111963093281 3953583.0515846880152822 17 18 20
-1377807.8362726178020239 -4803522.8510897662490606 3953584.0820717909373343 226 238 238
-1377807.9327622454147786 -4803524.2448074473068118 3953585.3894248441793025 102 109 115
-1377807.3295639785937965 -4803523.2037005145102739 3953584.3295825337991118 225 237 237
-1377807.3054035319946706 -4803523.1374063789844513 3953584.2766584954224527 228 240 240
-1377807.9995702565647662 -4803522.2295728968456388 3953583.2632495579309762 139 80 50
-1377804.1642498068977147 -4803523.6924207285046577 3953582.0847565033473074 122 112 102
-1377803.3962372147943825 -4803523.8808985473588109 3953582.1571477632969618 139 129 117
-1377824.6898120949044824 -4803524.8522965321317315 3953592.3342286664992571 66 91 131
-1377832.8586923917755485 -4803523.4190473491325974 3953586.1677617551758885 29 33 44
-1377807.7407343315426260 -4803523.0788528649136424 3953584.3013541325926781 204 214 215
-1377808.0556962396949530 -4803522.4084959970787168 3953583.4553250395692885 213 204 189
-1377803.5450449173804373 -4803523.3894190751016140 3953583.3750080615282059 134 114 81
-1377803.6314458232372999 -4803523.6952347196638584 3953582.2468089335598052 127 113 102
-1377821.6156805702485144 -4803523.1239257752895355 3953598.1511626881547272 77 110 155
-1377802.9388181944377720 -4803523.9590051081031561 3953582.1600591377355158 90 85 81
-1377820.4876383170485497 -4803521.8771716766059399 3953596.4324462898075581 98 121 153
-1377820.5488814148120582 -4803521.8713587801903486 3953596.4710782160982490 109 128 160
-1377803.8894213740713894 -4803523.1766338068991899 3953583.0387809304520488 175 169 155
