412441.5106653451,4265863.292231286,2171.928022559732,225,228,221
412440.24459360854,4265863.214992903,2171.627530637197,231,233,228
412438.9540351556,4265863.039260973,2171.2423550570384,136,121,92
412443.4293517568,4265863.396983352,2171.0180629109964,208,209,203
412442.5700199955,4265863.354183329,2170.944796124473,207,208,202
412463.0062207949,4265865.421168774,2169.5373410908505,71,47,37
412437.5437830471,4265862.988003864,2170.089892785996,206,207,199
412444.4841219412,4265863.408798538,2169.576024194248,170,153,137
412446.03111466207,4265862.631690665,2169.364534046501,14,10,11
412439.87429407303,4265863.079087249,2169.549512287602,186,175,157
412437.6036277733,4265862.908846713,2169.713877451606,215,195,171
412437.23256563384,4265864.856878993,2169.708862669766,29,19,17
412439.5271213297,4265863.087167909,2169.4738137060776,210,194,179
412442.1803157565,4265861.19976996,2168.9350284151733,149,138,106
412440.07300578046,4265862.6753120115,2169.074955087155,16,35,42
412438.78868472675,4265862.186240834,2169.035436425358,203,196,186
412439.56109324336,4265860.591799736,2168.9365885937586,162,153,148
412438.651884173,4265860.307421047,2168.888721981086,139,135,108
412438.2359460208,4265860.07933303,2168.874033022672,155,146,117
412438.4319354164,4265859.809214595,2168.8504269728437,120,106,79
412436.7787167409,4265863.7521517975,2168.8284718841314,132,123,82
412436.5570820624,4265862.394926165,2168.967970041558,50,41,42
412436.904431846,4265861.167705405,2168.8502569012344,71,58,39
412435.73218116304,4265861.911259227,2168.8868210697547,81,52,12
412434.9148262423,4265861.817850872,2168.910825318657,100,77,43
412434.96508296457,4265861.505215042,2168.9059486435726,150,137,102
412438.17017773946,4265862.531160639,2171.7023411216214,109,81,67
412441.90003413893,4265863.284813994,2172.227592010051,105,79,64
412446.5054004508,4265863.532152846,2170.7445083176717,33,32,30
412439.38835726405,4265863.021585796,2169.593494472094,150,139,121
412437.83488571894,4265862.97146678,2169.7128489278257,150,127,96
412440.4928677359,4265863.162293917,2169.2585858544335,196,173,155
412437.26745482424,4265864.05361619,2169.6182469567284,37,22,15
412437.45852360496,4265862.948780814,2169.581015578471,148,132,117
412443.01931746304,4265862.709856737,2168.892286673188,81,78,45
412440.0865814951,4265862.4211575305,2169.2241360852495,20,25,29
412447.97006715566,4265861.480324073,2167.879234429449,194,186,183
412440.2614164444,4265860.369800461,2168.966778642498,95,90,68
412437.41407165816,4265862.931621702,2169.3183205435053,50,32,20
412438.945578013,4265862.503851269,2169.0575842037797,54,53,51
412439.9631243507,4265860.602364455,2168.9510090900585,180,172,169
412437.30585668824,4265863.901855474,2169.2222346439958,48,39,32
412437.9922970895,4265862.134814655,2169.014012890868,182,170,158
412439.59907840425,4265859.846073866,2168.8172867549583,145,135,110
412437.35772237217,4265863.176823924,2169.0512618990615,43,32,26
412438.6386563886,4265860.73005977,2168.87437673565,162,159,154
412438.7465358343,4265860.110615986,2168.864137270488,154,148,122
412437.91487919027,4265860.515401101,2168.887368784286,97,92,63
412437.4184654241,4265861.545072395,2168.92506926693,184,178,166
412437.4863240513,4265860.68478072,2168.8791743582115,149,137,111
412436.29409435653,4265861.235095756,2168.8696754984558,109,85,51
412436.2171534622,4265861.1128246,2168.8565471731126,117,87,51
412436.5246769771,4265859.758689064,2168.903181564063,91,72,40
412435.3576581797,4265861.3212686805,2168.8874429566786,156,138,100
412435.4981880625,4265860.482637668,2168.872079098597,89,62,32
412434.78954005847,4265861.181409913,2168.894768996164,156,142,113
412441.4310959749,4265866.970111771,2173.1002179449424,88,87,92
412438.80574059027,4265862.66545011,2171.9741598097607,143,100,68
412443.8462686613,4265863.336715866,2172.4147255597636,89,36,18
412444.82471356425,4265863.208014757,2172.1122652990744,112,52,24
412438.21973547235,4265863.036956822,2171.386531962082,95,87,84
412438.4356971796,4265863.045409919,2171.320878367871,68,53,46
412446.45898401376,4265863.266177119,2168.9788784459233,16,14,15
412437.31655260053,4265865.2961622,2169.7370122782886,54,46,44
412437.1666941316,4265859.969705032,2168.9764185342938,176,152,118
412436.4223841339,4265861.1576654725,2168.8442464042455,164,143,100
412436.4301990563,4265860.3222186025,2168.88772989437,157,137,102
412436.27887824934,4265861.175675473,2168.787164698355,154,135,95
412442.57860531844,4265863.887974913,2173.407435000874,220,232,244
412439.8516957334,4265863.160685321,2171.446438308805,182,184,181
412439.78822026536,4265863.124698547,2171.4336539283395,187,186,182
412438.2580007515,4265863.006577118,2170.638661308214,22,20,21
412445.84666574316,4265863.572850727,2169.884684816003,234,232,220
412439.30328414665,4265860.374896544,2168.8727296655998,139,135,106
412436.4258441845,4265862.568998239,2169.0948497755453,33,18,13
412437.22124877485,4265861.2130431235,2168.847709101625,151,133,93
412436.8136788403,4265861.126613659,2168.8843365209177,79,64,43
412436.92452144064,4265860.065988162,2168.887774449773,153,130,86
412435.5796675746,4265860.681489789,2168.883489701897,154,131,89
412437.53102455696,4265862.566969745,2171.532857195474,161,117,80
412440.9888280341,4265863.246591969,2171.6828894903883,221,223,218
412439.94232308294,4265863.11463693,2169.804308612831,209,216,208
412444.38076126744,4265863.195546323,2168.9206677116454,53,25,21
412439.2372554665,4265860.140414634,2168.9072962487116,136,127,98
412438.9597845545,4265861.063216936,2168.8508630935103,90,90,92
412440.65301487746,4265863.294021658,2169.792340609245,236,236,226
412441.2589201373,4265863.048252704,2169.4673624318093,81,49,36
412437.5097568503,4265862.250930139,2168.933846742846,24,20,19
412434.4996695143,4265861.214085949,2168.904409419745,99,76,45
412438.0429450213,4265862.243917018,2169.0208908291534,163,153,144
412437.8696591187,4265862.380819058,2169.0012158537284,166,155,149
412437.9888635983,4265860.983634863,2168.87291063834,195,192,185
412437.3108403314,4265860.88741399,2168.8879566183314,88,72,47
412436.624395853,4265862.58000378,2171.2527835648507,29,19,20
412437.60984965065,4265863.019292657,2170.4818223817274,210,213,206
412436.0624027013,4265861.13899568,2168.845090814866,146,116,66
412437.13354116795,4265862.502087803,2168.7832538764924,185,166,124
412436.9340241319,4265863.345392344,2169.9956693798304,74,65,58
412439.03186024167,4265862.677953659,2172.0174086904153,106,70,54
412437.9861749298,4265862.611588351,2171.758762849495,52,33,35
412436.84687387047,4265862.475752843,2171.3510456867516,141,109,88
412441.16258077056,4265863.206291722,2171.848070573993,208,209,203
412436.6777720718,4265862.4941620575,2171.2765400633216,88,76,78
412437.54506515776,4265862.875703136,2171.222446475178,100,85,78
412439.578912082,4265863.105208738,2171.36965286918,178,184,182
412437.67150342674,4265862.92243507,2170.947602965869,65,48,38
412443.3612489922,4265863.285655697,2170.7825741851702,208,209,203
412444.3030972934,4265863.375250334,2170.6153425201774,66,67,62
412439.9489357396,4265863.134800415,2170.596557044424,183,189,187
412437.5083263305,4265862.960699683,2170.4709435421973,214,217,210
412443.1740984376,4265863.314066858,2170.378436140716,188,189,181
412442.46559502743,4265863.257751449,2170.2507200408727,219,220,214
412440.1005608432,4265863.164772478,2170.12084967643,215,216,211
412438.33138592244,4265862.939766498,2170.162292448804,30,22,20
412438.37209020177,4265862.968863373,2170.155463210307,30,22,20
412452.9486782799,4265864.086047688,2168.9635387808084,100,96,71
412446.75034514145,4265863.121508828,2169.3844413151965,84,72,60
412437.5748147095,4265862.996608563,2169.8315179385245,207,206,201
412445.1448601056,4265863.466253841,2169.053770906292,191,178,161
412437.2683494123,4265863.08391497,2169.748476226814,42,32,30
412439.90072866087,4265863.094916324,2169.414234106429,170,144,119
412443.8927865099,4265862.794570261,2168.944940952584,65,37,33
412441.78658501914,4265860.883646097,2168.9122379319742,184,177,167
412442.0792125282,4265860.677565784,2168.890214992687,174,170,161
412441.17901501805,4265860.9866164485,2168.8940485995263,177,172,168
412437.95236395113,4265862.197600698,2168.993627944961,191,181,171
412438.0388429911,4265862.170408018,2168.875310961157,116,98,94
412436.51223778207,4265862.727420316,2169.1045994674787,238,197,81
412436.9524269196,4265863.696017209,2168.857070582919,21,17,16
412437.6049704141,4265861.024541325,2168.869073611684,93,84,55
412437.75631919934,4265860.7103027925,2168.861509580165,71,66,46
412437.4049560762,4265861.385473566,2168.8523094309494,148,138,102
412436.90424310963,4265862.132935623,2168.861980780959,172,154,114
412437.5271767536,4265860.596072265,2168.890379404649,150,137,103
412437.7209429471,4265860.455120058,2168.8533057672903,124,104,67
412437.2203843825,4265860.892021282,2168.841719501652,87,65,42
412436.3928349428,4265862.282171925,2168.8516491102055,158,132,81
412437.2072873544,4265859.9814187465,2168.961464212276,179,156,122
412436.99669900327,4265861.220904098,2168.8231368474662,71,58,39
412436.1741578762,4265862.301356738,2168.875227972865,145,115,63
412436.6967757007,4265861.461079771,2168.8411022098735,142,124,86
412437.20984500437,4265860.399182111,2168.8507753796875,131,104,57
412437.6447547324,4265859.554289812,2168.8478164076805,141,122,89
412437.4975363033,4265859.605378588,2168.8547874288633,163,148,119
412436.02785437583,4265862.231747913,2168.8585024029016,198,179,136
412435.7998126964,4265861.828713843,2168.926398171112,219,190,112
412435.8504549725,4265861.937208739,2168.8604401880875,100,66,18
412435.8829961416,4265861.805737882,2168.847415210679,91,56,0
412436.4757215412,4265859.791793134,2168.856738231145,135,114,87
412435.81059593824,4265860.95638123,2168.828412001021,138,119,87
412435.5466885198,4265861.317292745,2168.8378162877634,140,122,86
412435.14604584966,4265860.445079455,2168.9293073033914,156,143,109
412435.5351513255,4265859.82295874,2168.8356520514935,176,161,128
412435.3342803242,4265859.9385461705,2168.8242878373712,164,150,121
412434.7472750342,4265860.465531088,2168.8148671118543,113,85,45
412434.94389401306,4265859.641561911,2168.8495362270623,179,163,129
412441.37051283824,4265862.697891665,2172.8664183374494,165,128,101
412441.0979268392,4265863.357481078,2172.8901573205367,89,78,76
412440.00442851736,4265862.638071386,2172.415136472322,148,110,89
412436.66014534683,4265862.470322554,2171.326600043103,28,18,17
412438.09058826836,4265863.009848752,2171.231394481845,74,55,41
412437.1645919586,4265864.425738875,2171.209438096732,68,45,31
412438.35637713096,4265862.969121821,2171.03352872096,24,20,21
412441.5491876352,4265863.202873578,2169.6793756373227,65,52,44
412439.55386560736,4265863.081735455,2169.6577754206955,53,40,32
412445.8683287546,4265863.552315103,2169.0569820590317,176,159,143
412439.5067102202,4265863.068172765,2169.467813055031,174,159,138
412443.73830049415,4265863.271273485,2168.8836491210386,161,143,131
412437.6723399165,4265862.468763602,2169.5366866849363,23,12,8
412441.73187932913,4265860.690133106,2168.9356822781265,148,145,140
412439.57280427637,4265862.32688516,2169.012947360985,150,141,136
412439.40378633596,4265862.222496113,2168.938244770281,119,108,104
412438.2051034726,4265861.75187382,2168.8636581953615,181,174,168
412438.1813963997,4265861.712095882,2168.8093451764435,162,157,151
412438.12485146604,4265860.462459068,2168.8958620326594,74,63,41
412438.6080955145,4265860.12365707,2168.8299089185894,89,79,52
412436.7312882085,4265863.918625032,2168.795270299539,145,135,99
412437.4340370759,4265861.3324838905,2168.852032207884,117,102,61
412436.8745488902,4265861.7362588355,2168.8352855360135,149,137,99
412436.0781357956,4265863.056739182,2168.8301530396566,89,77,39
412437.2298301071,4265860.224261508,2168.9011007184163,173,154,114
412437.3839728895,4265860.004682378,2168.865815045312,97,77,44
412436.3211450917,4265861.108159446,2168.8324115565047,102,77,46
412436.9698534152,4265859.383931143,2168.891657411121,92,75,49
412436.2316230406,4265860.871952189,2168.8349333405495,170,150,115
412435.92612854583,4265860.814535715,2168.8382006483153,156,140,106
412435.55189267755,4265860.1520500835,2169.0511485002935,123,104,74
412435.02910891495,4265861.243510391,2168.8524587629363,88,72,46
412436.00979420793,4265859.470583752,2168.852609281428,162,140,101
412435.33154916536,4265859.204293994,2168.861388383433,184,165,135
412440.85261602886,4265868.015459297,2172.866987670772,38,36,39
412438.38308080065,4265862.571907213,2171.8347389427945,146,102,73
412443.9111721751,4265863.137967096,2172.3783139055595,119,55,27
412437.8135105506,4265862.9522421975,2171.194793470204,72,50,37
412444.41222287563,4265863.429909616,2171.4363268641755,216,217,211
412446.4138767764,4265863.616547217,2171.4732389980927,97,80,73
412446.63711281924,4265862.927400803,2171.0789068974555,58,57,29
412442.2903956296,4265863.285555535,2170.0075477082282,160,162,159
412446.0072710434,4265863.565166995,2169.420618106611,160,142,128
412437.62598597404,4265862.882731477,2169.6684784907848,33,20,12
412437.4566044807,4265862.946990157,2169.581281568855,148,132,117
412437.26965710445,4265864.19076652,2169.441463947296,45,38,32
412440.66800450394,4265861.710121181,2168.8968405760825,155,148,140
412437.6411215492,4265862.962992096,2169.2675593141466,58,41,33
412439.77091975784,4265861.791809968,2168.8805232821032,126,117,112
412438.88441648945,4265860.464191627,2168.8962468355894,62,61,40
412436.7244172702,4265862.418622212,2169.1056433469057,29,18,16
412438.57097857643,4265860.376374338,2168.908723577857,138,132,100
412438.52797062136,4265860.330128282,2168.8594149053097,76,69,50
412436.8915748135,4265863.695802946,2168.818336131051,138,129,88
412436.5407106646,4265863.935623968,2168.8149574743584,159,147,109
412438.3154259212,4265860.204647199,2168.8498732512817,184,172,146
412437.5596689926,4265861.555089677,2168.844579823315,111,101,66
412437.2046199124,4265861.528939375,2168.8531046370044,55,58,29
412437.58385465015,4265860.528568306,2168.857246710919,107,87,52
412436.36460281507,4265861.743590883,2168.8598214946687,116,89,59
412436.7018569666,4265861.264966182,2168.830332950689,90,70,46
412436.57471999427,4265861.177338683,2168.8089381689206,172,150,109
412436.20242224395,4265861.302233442,2168.8465027231723,118,88,52
412436.60099410044,4265859.583032892,2168.891757780686,127,116,88
412435.9194714738,4265860.790132698,2168.8024879517034,96,77,45
412435.18105227104,4265861.7399130985,2168.8721408694983,137,118,85
412436.1324441255,4265860.13096925,2168.8479209048674,102,85,57
412435.56620819226,4265861.183358161,2168.8353889510036,155,140,111
412436.3465201531,4265859.587698628,2168.864117234014,91,72,42
412435.9250335937,4265860.437424767,2168.8307001637295,84,64,39
412435.6580104365,4265859.976144592,2168.833933753893,103,77,44
412435.5411505472,4265860.004853226,2168.850542133674,95,70,40
412435.69206004706,4265859.190282925,2168.850469859317,123,104,72
412435.22272175096,4265859.905241373,2168.8290529968217,199,184,151
412445.54541914386,4265862.707509892,2171.870276046917,57,53,54
412437.3886781469,4265863.026712737,2171.077141101472,85,59,42
412447.2016687233,4265863.4941534335,2171.229225644842,172,161,155
412441.88483995345,4265863.189673562,2170.5409119278193,234,236,231
412445.2742367079,4265862.136576519,2168.8099597729743,168,154,143
412440.61951257725,4265861.440806209,2168.871987974271,137,128,123
412437.3239736828,4265861.546441936,2168.9991508051753,168,161,151
412437.05462020583,4265860.171721432,2168.9033462600783,85,65,41
412436.94935533777,4265860.402407167,2168.848977902904,115,86,56
412435.90417947684,4265861.603459109,2168.8322674268857,154,136,100
412436.1807502746,4265859.452180459,2168.86158739496,142,108,63
412435.1668502487,4265860.2645158665,2168.815253810957,182,166,133
412435.32378580514,4265859.833595116,2168.8432041192427,180,163,135
412434.83428285026,4265860.532166853,2168.8294426491484,126,94,55
412436.71762452176,4265862.432917619,2171.270588627085,159,109,74
412437.39058298006,4265862.564952056,2171.279424547218,145,92,60
412446.5159751178,4265863.603547123,2169.6612059278414,77,62,57
412441.47064804274,4265862.955172584,2169.5690679326653,222,203,186
412444.65579254646,4265861.094504312,2168.937970574014,142,133,124
412438.6281568158,4265862.318664177,2169.0172329591587,177,164,155
412439.0156490052,4265862.211109199,2168.93110841047,62,56,58
412438.5886156721,4265862.1402620245,2168.9501547925174,62,53,54
412436.6823019973,4265864.00045509,2168.860461762175,16,12,11
412437.4464676562,4265861.327198383,2168.8744522714987,142,130,92
412437.41722237464,4265860.344733431,2168.872996591963,163,145,107
412436.6953626296,4265860.922835132,2168.851339938119,159,135,99
412435.3038946499,4265861.502666965,2168.9390323096886,138,118,91
412435.7419970218,4265859.384347362,2168.839278598316,79,59,32
412435.2164706397,4265860.3575348705,2168.819082206115,128,108,73
412435.74578331446,4265859.257378243,2168.8532249396667,158,139,107
412444.7183641817,4265860.912478445,2172.483347837813,207,221,234
412445.70057756,4265863.586068862,2169.0737249003723,196,178,158
412437.213438155,4265864.065258621,2169.4689298048615,44,33,27
412440.34668919584,4265862.003282079,2168.945928850211,189,180,171
412437.0035755463,4265860.514764515,2168.8867640299723,160,133,88
412435.63570453186,4265860.93814197,2168.8421556893736,81,61,37
412440.98377893504,4265866.255338043,2173.0487714372575,201,216,235
412446.75227330247,4265863.393193014,2171.5088394079357,63,25,16
412439.8176513471,4265860.424072806,2168.9077527588233,62,57,37
412438.090476894,4265861.431310853,2168.822186315432,181,180,176
412436.4411007024,4265862.702406202,2169.0128791686147,165,134,54
412434.99836798134,4265859.474054995,2168.8804297540337,172,153,120
412444.62557066354,4265863.416562987,2170.4684267593548,99,98,96
412439.3911914035,4265863.008250092,2169.8604999370873,205,206,200
412437.4313742366,4265863.423856729,2169.85828515701,90,77,68
412437.2472168843,4265863.707026597,2169.66934236791,47,30,22
412441.25489524816,4265862.405508156,2169.0801675850525,128,113,90
412443.4490525132,4265861.429431293,2168.842488062568,117,111,79
412440.20487636223,4265860.28819205,2168.877660954371,70,68,45
412437.5581673447,4265862.9704569075,2169.8563032606617,210,211,205
412441.86000200687,4265863.021318605,2172.668722104281,99,75,63
412437.06416693464,4265863.785113714,2170.0298130679876,82,72,62
412437.07398100954,4265863.496548263,2171.3302282467484,27,18,19
412441.67012853635,4265863.307148479,2172.367483574897,90,91,93
412442.5213966649,4265863.392859066,2171.6824193904176,204,206,201
412445.67527792236,4265863.481243667,2171.826479091309,77,32,13
412443.3622157937,4265863.392242689,2170.8159459838644,192,201,200
412440.15614205133,4265863.169163684,2170.6106132203713,136,112,88
412442.0649615914,4265863.265290651,2170.166387250647,196,201,197
412437.5959364325,4265863.0340305865,2170.2268771352246,213,218,212
412443.4043411901,4265863.348107047,2169.06681891717,150,130,106
412439.39667625306,4265863.0712477965,2169.389607151039,185,156,140
412437.6680439989,4265862.19010465,2169.5002248585224,62,54,52
412440.07455650636,4265860.342732272,2168.9969611214474,101,95,69
412439.07616396487,4265860.00003778,2168.8947924748063,95,88,69
412439.039651061,4265859.489461365,2168.8949759658426,30,27,18
412438.42466477305,4265859.770378974,2168.900439123623,159,152,124
412436.55141927087,4265861.319282541,2168.897192152217,136,119,89
412436.7016270753,4265860.864775091,2168.8961965991184,98,81,51
412437.5399899799,4265859.625061851,2168.9107385762036,129,114,85
412437.62445070717,4265859.147328461,2168.9278614688665,131,115,92
412437.40112912445,4265859.271592217,2168.916962170042,72,51,20
412436.563768701,4265860.001767173,2168.9243046892807,96,76,43
412436.9405337363,4265859.300793366,2168.9161285832524,83,68,45
412436.9020976169,4265858.682753279,2168.9434091253206,130,106,72
412436.252326938,4265859.003937067,2168.9486646456644,118,95,53
412442.7732585726,4265863.750818447,2173.4482251377776,203,212,227
412442.2347079835,4265862.710212961,2173.0770368045196,151,173,197
412443.44975037314,4265863.332840054,2170.7836753986776,203,205,200
412437.5241148793,4265862.556478067,2169.673860864714,27,12,9
412439.55391044996,4265863.135513489,2169.3544028205797,89,76,67
412443.00179141975,4265862.962923129,2168.888197939843,74,68,44
412436.5590652453,4265862.283730301,2169.0930076846853,234,199,117
412438.9455055401,4265860.198935516,2168.9258106881753,124,116,93
412438.6031501049,4265860.282034658,2168.91209274251,120,116,89
412437.1251611633,4265862.2507222155,2168.8804332520813,161,146,113
412436.9620110294,4265861.921872108,2168.8898466760293,154,144,109
412437.0132001329,4265861.470354038,2168.891328074038,60,63,34
412436.7195915203,4265861.735799506,2168.8897248618305,141,125,89
412437.6969875928,4265860.324885134,2168.920150725171,153,139,104
412437.29133903136,4265860.825295936,2168.89436331857,73,60,41
412436.9177328202,4265860.942722265,2168.896664961241,77,59,35
412436.03872899944,4265861.814466132,2168.8846516106278,94,75,43
412435.8097924357,4265861.50511611,2168.928383444436,109,78,34
412435.96507568954,4265861.214810161,2168.873372080736,170,150,113
412436.9494807081,4265859.468530456,2168.9155913218856,158,144,117
412437.0219319244,4265859.172910163,2168.9410926811397,62,49,33
412436.1227772202,4265859.269403241,2168.9340359009802,143,121,80
412436.0009841309,4265858.712404239,2168.9571117311716,168,152,118
412444.01086724806,4265863.213971946,2172.3721216423437,81,35,19
412441.55132562073,4265863.328759079,2171.5729826334864,213,215,212
412444.0284325542,4265863.355833548,2169.4812075402588,122,112,103
412437.82612605137,4265862.964165438,2169.840989713557,94,77,59
412441.3175425213,4265863.191374406,2169.515461315401,172,165,155
412436.5687670185,4265862.619886778,2169.1327523849905,188,144,55
412439.1304111325,4265859.70527489,2168.925358475186,118,112,88
412437.06379092205,4265859.426207776,2168.9469644380733,83,68,49
412436.98636453995,4265859.071899202,2168.94497782737,137,118,86
412436.3148732941,4265859.885628391,2168.9012341406196,80,59,40
412435.5277833163,4265860.650388746,2168.937927578576,82,66,43
412435.51277377806,4265858.76711796,2168.967682885006,157,141,108
412440.7886794808,4265863.287267885,2170.3612191481516,202,198,186
412437.4394845394,4265862.928139314,2169.180006634444,41,27,24
412437.6358591245,4265861.937849351,2168.985561086796,56,52,53
412436.3531427749,4265862.472376281,2168.950389311649,37,23,10
412438.4386126113,4265859.797044893,2168.920364579186,124,115,86
412439.6701477774,4265863.300706235,2167.4949013600126,140,129,99
412436.8820539198,4265859.089224721,2168.8974912632257,151,137,108
412439.8122098617,4265863.152911896,2171.438293432817,160,162,161
412439.64875308797,4265862.195966568,2168.912827845663,124,119,116
412438.8120860703,4265859.92757886,2168.9097712747753,42,39,32
412437.76324748923,4265860.923309824,2168.8123389417306,59,53,37
412435.41313332826,4265860.622175515,2168.920156213455,141,126,87
412435.06361636746,4265859.443685788,2168.9333196934313,122,103,70
412444.2958847523,4265863.401595065,2171.16860273201,40,36,35
412438.28335448407,4265863.012227584,2170.0505554899573,34,34,34
412445.7241701274,4265862.895158346,2168.8471735129133,122,111,105
412443.10550826613,4265863.135750238,2168.887713415548,47,29,17
412437.5791239767,4265863.054918873,2171.1135530592874,95,87,84
412436.4820350755,4265862.470554574,2168.9580027554184,23,18,14
412444.21678075206,4265863.323146096,2173.3179145790637,222,235,244
412439.53709516104,4265862.656389652,2172.1608902011067,96,70,57
412440.35118437355,4265863.152582924,2171.5171411205083,177,181,180
412437.8102987561,4265862.755188396,2171.1971417479217,64,47,37
412440.4957621871,4265863.2335844515,2171.0614068442956,46,44,47
412442.55535254645,4265863.305671254,2170.6004545269534,217,219,214
412442.9114842215,4265863.342520234,2170.5788956200704,223,225,220
412443.6756436165,4265863.406858021,2170.423825809732,177,181,180
412439.7879521401,4265863.126476978,2170.294246529229,145,147,146
412442.07719925145,4265863.250505706,2170.0485714497045,190,195,191
412442.63789180724,4265863.359700824,2170.009535984136,207,208,202
412442.5924768228,4265863.274977845,2169.6293677948415,133,119,108
412446.0331663771,4265863.5288536195,2169.27919514291,182,168,155
412439.7717674383,4265863.132042717,2169.5845257267356,58,43,36
412439.9637740159,4265863.189886346,2169.312181893736,52,34,30
412439.9788780205,4265862.744959569,2169.209089577198,13,18,21
412442.2194254233,4265863.195348906,2168.900581994094,40,25,20
412438.85003949446,4265863.130370539,2169.121977158822,77,49,35
412437.9748031625,4265862.880841297,2169.231105037965,180,182,181
412440.69893065275,4265862.090621156,2168.901161406189,129,120,113
412440.74432963546,4265862.0248268405,2168.8836879851297,121,114,108
412439.393860648,4265862.2719562035,2168.9164658002555,71,60,56
412446.0652880487,4265867.858722307,2166.6554664829746,81,77,74
412439.2495257644,4265860.96762597,2168.9181489469483,157,150,140
412436.591520531,4265862.341822326,2169.0727098202333,234,199,117
412440.2691319764,4265859.685945864,2168.969473518431,115,108,79
412439.5832149352,4265860.362527498,2168.925484820269,82,80,65
412437.4357611959,4265862.311397568,2168.8576116403565,126,121,89
412438.22954412707,4265861.390429861,2168.8519407063723,106,102,99
412439.5193733377,4265859.881913778,2168.9201056314632,107,102,82
412438.6502200182,4265860.554612802,2168.895547389053,136,132,123
412439.39868751576,4265859.813785978,2168.9054722627625,45,37,26
412438.0042921435,4265861.166785384,2168.857940064743,145,136,129
412437.3095727204,4265861.3279209,2168.878649047576,150,140,105
412437.6108439234,4265860.989175492,2168.8726754030213,89,82,54
412438.5740528484,4265859.475697105,2168.917154705152,132,124,103
412438.2994304235,4265859.672742637,2168.891597336158,119,105,79
412436.3617205264,4265861.546210787,2168.8490267572924,114,97,67
412437.60810536414,4265860.016401576,2168.9066125908867,161,139,100
412436.677266585,4265860.985229127,2168.8734872220084,96,79,51
412437.18638021057,4265860.2673925385,2168.8890397716314,153,135,99
412438.1019908624,4265859.2084974535,2168.9023412633687,134,124,99
412437.69052286877,4265859.343530726,2168.9212434999645,68,48,23
412437.2722967042,4265859.595634277,2168.9020599564537,148,134,107
412437.45725828817,4265859.317756578,2168.928835965693,143,125,89
412437.41316063935,4265859.279129334,2168.914245900698,72,51,20
412437.01977122086,4265859.027161043,2168.920700355433,201,163,52
412436.95669008035,4265859.003548227,2168.923394101672,64,46,34
412436.16719157144,4265859.5249214275,2168.9134114887565,98,81,55
412436.6966690844,4265858.7148291385,2168.950489102863,109,88,59
412441.28780876036,4265863.235867737,2172.255311609246,103,97,99
412441.9898417054,4265863.279477229,2170.014512723312,196,197,191
412441.784982173,4265862.346646552,2168.911463441327,151,137,102
412439.44573200034,4265861.696666449,2168.9247186779976,130,121,114
412439.43141742446,4265861.176570566,2168.903939753771,193,186,178
412437.3437803599,4265862.873888214,2168.823783864267,156,138,102
412436.58906867483,4265862.338221825,2168.9076966242865,27,19,16
412436.89994722453,4265861.253296233,2168.8647125633433,71,54,34
412437.2289961342,4265860.728425939,2168.8491585133597,111,97,70
412437.0291141412,4265860.289510361,2168.9043427938595,117,93,57
412437.377331685,4265859.852399552,2168.9043399551883,91,72,42
412437.70705168427,4265859.234620891,2168.934925154783,87,71,55
412437.31542928965,4265859.547503738,2168.909221681766,154,140,111
412436.81430531666,4265859.972162338,2168.8861119495705,97,78,48
412436.8289356746,4265859.162896473,2168.9096158659086,157,141,108
412436.8468290971,4265858.910682488,2168.921962313354,169,155,120
412435.96313412365,4265859.410078235,2168.91869757697,160,141,108
412444.8167396737,4265863.536665175,2170.8845609705895,135,134,130
412437.7035508428,4265862.176397252,2169.4465091228485,21,11,10
412439.17211039545,4265859.607036397,2168.9040604615584,119,112,84
412439.3382560446,4265859.33236438,2168.927502198145,100,94,82
412438.3026751275,4265860.246494909,2168.915065621957,61,58,43
412437.1414004942,4265861.495460491,2168.8632883131504,52,56,31
412438.2868045236,4265859.750282965,2168.892780034803,111,97,70
412437.23273806844,4265859.944436546,2168.915917715989,84,63,36
412437.1049162212,4265860.015199472,2168.8826158624142,140,126,99
412436.51195297873,4265860.590261917,2168.867861136794,136,120,87
412437.17021805095,4265859.280890077,2168.917147897184,129,121,100
412467.59106372803,4265889.181385326,2182.2127586631104,184,202,226
412439.59837656684,4265863.102696308,2170.8795577576384,58,50,37
412439.90390001,4265862.499414678,2168.9528431259096,6,16,25
412437.8665533811,4265862.215891739,2169.0245083617046,143,136,130
412442.85363973264,4265863.304424048,2169.0301043009385,49,41,38
412438.4916207082,4265861.481421406,2168.891613726504,89,85,86
412437.71034959354,4265861.014355294,2168.891507986933,178,171,163
412437.1165670414,4265859.133598266,2168.939376765862,68,57,39
412436.1091370539,4265858.960583031,2168.9353070724756,182,163,131
412444.20889289916,4265861.486486337,2168.937633854337,137,124,115
412438.2937124702,4265859.968611786,2168.887222859077,90,79,59
412439.2831205958,4265859.999087595,2168.904773264192,133,129,102
412437.80855852447,4265860.412440061,2168.8833351433277,160,147,113
412436.95080176997,4265860.536157914,2168.891649428755,149,128,85
412438.4766606471,4265862.943946617,2170.5631514582783,16,16,18
412438.5736013436,4265862.537279388,2171.8687078915536,99,68,50
412440.2504225905,4265863.178462519,2171.4573543155566,153,158,161
412440.3670776716,4265863.148918582,2171.531235087663,164,170,170
412446.7186024569,4265863.900050052,2171.5302242673934,48,40,38
412439.9859963216,4265863.125136561,2170.3021199721843,135,139,140
412441.8911638907,4265863.256861328,2170.199729588814,188,190,187
412439.94482987415,4265863.166106405,2170.038999381475,156,158,153
412445.4527865983,4265863.490653419,2169.4369942154735,156,137,120
412440.40206124826,4265863.187208615,2169.485088069923,147,137,127
412437.72769509244,4265862.238894915,2169.4971596514806,52,47,44
412439.39765616896,4265863.0336737735,2169.2066019754857,135,119,106
412439.43248625874,4265863.149705812,2169.042934127152,73,58,51
412438.1817074205,4265862.5998900365,2169.175629230216,37,18,12
412442.32706221985,4265860.513269618,2168.904180894606,138,133,127
412440.62564089,4265861.054333951,2168.879909544252,156,147,140
412438.0132453994,4265862.320762013,2169.0123405922204,116,105,99
412438.3344097993,4265862.174590028,2168.9893413446844,43,34,35
412440.62864762836,4265859.863406402,2168.957364422269,116,114,91
412437.6215986057,4265862.200861563,2168.877983668819,65,57,54
412439.2636799798,4265860.46582496,2168.918467829004,78,80,59
412439.5185018577,4265859.957753449,2168.902461314574,97,95,74
412438.4142448769,4265860.865601734,2168.8608012702316,154,149,145
412438.80188532843,4265860.198752472,2168.8727439502254,40,39,34
412438.7287874132,4265860.122606783,2168.8767126901075,132,130,105
412439.7256197096,4265859.171462866,2168.9227566402406,57,53,41
412439.62017644604,4265859.1757531185,2168.9301453195512,79,76,61
412438.442513505,4265860.0366582135,2168.890161897056,89,78,58
412437.2645095973,4265861.176812126,2168.830732273869,135,122,88
412438.83966753166,4265858.863660719,2168.919967999682,92,87,67
412437.79224855005,4265859.700876383,2168.908385425806,126,109,83
412438.7077076392,4265858.943851743,2168.907194766216,20,17,10
412438.9172281388,4265858.72575407,2168.9103457415476,39,34,28
412437.229346168,4265860.134571665,2168.8898398075253,136,123,91
412437.82652283204,4265859.603622068,2168.8965700697154,132,120,94
412437.19729826745,4265860.083180024,2168.8832805901766,89,75,48
412437.4119411,4265859.83656101,2168.88433983922,119,107,83
412437.0071151932,4265860.025108031,2168.863291320391,144,133,101
412436.8464724231,4265860.085739718,2168.8744711959735,122,107,78
412437.08997480955,4265859.560485534,2168.8939720494673,49,39,29
412437.7588125685,4265858.907803397,2168.8899055253714,145,138,110
412437.55034360255,4265859.023543136,2168.904528401792,66,58,45
412437.88629727764,4265858.397736686,2168.9429513784125,67,59,40
412437.6538222157,4265862.908124793,2170.948258990422,166,168,165
412440.521539425,4265863.134221777,2171.0872430317104,38,39,43
412446.5798494213,4265863.262428849,2170.6158310156316,56,54,33
412443.3833103353,4265863.018015043,2168.9521344937384,117,103,90
412442.63865480584,4265863.287449745,2168.9787786230445,134,115,100
412438.1579035474,4265862.523504668,2169.396266902797,34,16,14
412438.23017115035,4265862.546359623,2169.3393189385533,115,116,118
412442.1875938571,4265861.218676461,2168.9273058567196,126,116,89
412443.0513312317,4265861.052422996,2168.3645123140886,122,116,90
412440.16791199247,4265860.152410145,2168.9436348201707,114,106,87
412438.5462852418,4265861.272457522,2168.8616051310673,132,130,131
412438.1239549846,4265861.611643024,2168.852706837468,114,112,113
412439.5144009526,4265860.09029538,2168.9157604165375,36,33,24
412438.40418414096,4265861.166403066,2168.86237226706,100,96,97
412439.39589102747,4265860.2608870305,2168.8812729148194,97,92,70
412439.15874161304,4265860.250073057,2168.890974204056,63,58,39
412439.7406877132,4265859.342573862,2168.9258804805577,45,38,28
412438.12503061665,4265860.378880196,2168.8799342624843,107,103,78
412438.6693459563,4265859.3470131075,2168.898639907129,49,45,36
412438.04739229486,4265859.519168977,2168.9042215337977,152,143,114
412438.43793852115,4265858.698810588,2168.8954261532053,107,100,82
412438.22099733807,4265858.738482604,2168.899478105828,127,119,98
412437.6184278771,4265859.02271687,2168.918542458676,123,112,92
412437.4956887014,4265858.89235469,2168.910863873549,127,123,98
412437.52290805953,4265858.512782452,2168.935396171175,94,87,68
412442.8643668773,4265863.285075358,2171.8039590111002,184,189,185
412439.2098674378,4265863.011302652,2169.6711702533066,116,94,71
412440.4171326894,4265860.584285739,2168.966005508788,161,154,144
412438.20368905034,4265861.748086535,2168.862253452651,149,145,144
412437.54682207794,4265861.137054357,2168.8729339605197,69,71,47
412438.5875346633,4265860.161698958,2168.8673761477694,114,104,79
412438.44863567885,4265859.502267411,2168.883474772796,115,108,89
412438.8572825127,4265858.700741271,2168.8681849697605,52,43,34
412438.58787389955,4265858.567512363,2168.891446040012,37,36,32
412437.54836084653,4265858.948241934,2168.9212019070983,62,56,42
412438.1045030638,4265862.460657774,2171.725040926598,97,66,45
412437.5714369746,4265862.427572806,2171.547659754753,97,64,47
412439.02052344,4265863.111628942,2170.1391406813636,9,7,8
412440.9977711218,4265859.906911006,2168.956976194866,79,74,54
412438.72409536043,4265861.679260595,2168.9410984870046,135,132,127
412438.45467183896,4265861.798449031,2168.848869178444,114,110,111
412438.33556237415,4265860.021182379,2168.8882355382666,83,78,58
412438.44647313195,4265859.775785201,2168.8939596405253,120,114,90
412437.9277434516,4265858.540176829,2168.9217061521485,130,120,95
412437.0811684651,4265859.216071621,2168.914696428925,44,42,30
412444.3151971635,4265862.908137811,2168.889812667854,154,141,133
412438.31690814835,4265862.553620366,2169.0649993875995,61,65,74
412439.02124184015,4265859.855792145,2168.8777570724487,45,41,38
412438.2243265324,4265860.208136745,2168.8597613610327,149,142,113
412439.66729008534,4265862.19959487,2168.9052636455745,123,120,115
412438.1956243175,4265862.407454116,2168.9959038374946,121,116,112
412438.5473406645,4265860.69021636,2168.884883758612,140,133,127
412438.8300502273,4265858.833901897,2168.893728236668,125,119,93
412438.469417398,4265858.922470485,2168.883470473811,130,120,93
412438.4066251201,4265858.679851154,2168.8734352597967,90,83,64
412439.32624303305,4265860.029863081,2168.8836982781067,122,116,92
412438.5126887006,4265859.858571609,2168.900415451266,110,104,80
412437.82548620884,4265859.017884589,2168.9143412942067,37,32,26
412439.30085443205,4265862.868149314,2172.105095958337,65,40,33
412444.8120814663,4265863.084485645,2172.1691484022886,85,59,44
412439.2218190664,4265863.055578853,2171.2951186141,129,111,91
412439.3321882206,4265863.168650682,2171.2860460961238,204,204,202
412442.9099479803,4265863.338039519,2170.572856114246,198,202,201
412446.62041729235,4265863.4751943415,2169.9728507502005,39,36,29
412442.3847760538,4265863.252640798,2169.6259159427136,154,137,119
412445.90275788127,4265863.537207713,2169.043384552002,184,172,156
412443.8559316297,4265862.7428564085,2169.060498532839,134,100,91
412442.9647652506,4265863.308146915,2169.0293692918494,167,159,148
412443.2656514273,4265861.923877094,2168.9348549088463,67,58,41
412442.7120808281,4265861.5916962875,2168.959054864943,70,64,42
412443.31550255726,4265861.100620135,2168.9483453128487,53,50,35
412442.5759084447,4265861.038844895,2168.924563558772,93,85,62
412440.4969911348,4265861.734073,2168.9347236044705,134,124,122
412441.90525817696,4265860.630061132,2168.9309261748567,141,131,121
412442.1076585967,4265860.404771274,2168.891430671327,121,116,113
412441.25193110376,4265859.873566116,2168.9486142965034,61,54,36
412440.5363981445,4265860.169547047,2168.9547067554668,108,102,78
412441.20047357405,4265859.815536524,2168.930433442816,112,101,79
412441.0567235821,4265859.826117571,2168.928888618946,68,57,37
412440.52308849036,4265859.875179859,2168.9322379697114,37,33,21
412439.74924037943,4265859.964712551,2168.913175054826,81,78,63
412439.46622538794,4265860.100249254,2168.90731230285,134,131,112
412440.0454106891,4265859.520282934,2168.893420688808,37,33,24
412439.6831242628,4265859.315337546,2168.8715436300263,56,53,36
412439.0838104552,4265859.653284623,2168.877716508694,26,26,16
412438.92361017136,4265859.680379281,2168.887962093577,39,36,29
412439.3198372361,4265859.193261874,2168.8463787687942,41,38,29
412438.0467400038,4265859.525876518,2168.9392646476626,126,107,77
412438.5134830893,4265859.147976776,2168.8971016295254,98,90,67
412438.167688548,4265859.305583013,2168.9080242188647,99,88,68
412438.32657583954,4265858.920778709,2168.8912492422387,138,126,100
412438.1032067934,4265859.027837377,2168.8914127377793,67,58,41
412440.36447682825,4265863.16128454,2171.5244211433455,177,181,180
412439.56687617843,4265863.226868626,2171.436292586848,200,204,203
412439.4898557209,4265863.163975595,2171.242875286378,194,198,197
412447.5783813991,4265864.029335498,2171.291133400053,31,21,20
412439.38824802305,4265863.097315853,2170.486515267752,146,150,149
412445.56995088555,4265863.539093989,2169.0529975956306,168,149,132
412441.88337312546,4265862.970177009,2169.166869659908,137,129,118
412443.22175830737,4265862.874010675,2168.979837935418,117,103,90
412443.9531387144,4265861.913942194,2168.920930418186,98,83,76
412444.293288658,4265862.037538277,2168.8678832976148,97,82,75
412441.66506967845,4265862.374492857,2168.902009706013,149,138,108
412441.95046972646,4265860.859887576,2168.938163537532,62,54,33
412441.5499456185,4265860.715359647,2168.8596190232784,115,111,108
412440.48141175526,4265860.921868029,2168.9264322817326,153,144,135
412439.16017467505,4265859.811351599,2168.883627413772,104,98,74
412439.43480289367,4265859.292069325,2168.8691084226593,44,36,25
412439.6609157553,4265859.093344921,2168.8681331248954,102,95,76
412438.7213032928,4265859.5520981485,2168.8894036682323,44,41,32
412439.3023275764,4265859.254778507,2168.860684912652,37,35,23
412439.3271758213,4265859.040711524,2168.857227947563,58,52,36
412438.5041477628,4265859.077128732,2168.887816931121,134,129,100
412438.7118594843,4265858.870605943,2168.870668347925,38,35,28
412438.8167677203,4265858.638110625,2168.8071250440553,92,84,65
412438.1398322487,4265862.760759996,2171.8334245057777,21,19,24
412439.4082326095,4265863.10722997,2170.9919813564047,158,160,157
412446.6624982983,4265863.371869341,2170.2344069788232,47,45,32
412446.3850440001,4265863.035683968,2170.249804343097,32,28,19
412438.9777585466,4265863.035820218,2170.0623559122905,8,6,7
412446.08137826284,4265863.536040397,2169.2431146213785,176,166,154
412440.06102868856,4265862.249788391,2169.218190345913,12,18,18
412440.9930431789,4265862.919983401,2169.029154818505,66,61,67
412441.53418191103,4265861.63291396,2168.9266294287518,52,54,32
412442.12287454394,4265861.03514817,2168.964738095179,114,107,78
412441.0891271197,4265860.937572944,2168.9115407718346,143,132,126
412440.6436250885,4265860.6317339055,2168.9157174378633,160,155,151
412440.67694727716,4265860.15155364,2168.9204557752237,108,100,79
412439.5440137906,4265860.538525852,2168.908819013275,75,70,50
412440.4754240397,4265859.647462845,2168.899752110243,106,101,79
412437.6016348811,4265859.533703684,2169.302087279968,155,155,153
412440.0894695504,4265859.08714778,2168.890146789141,50,44,32
412439.7369785274,4265859.118856957,2168.8765264768153,44,40,29
412438.726195568,4265858.790707355,2168.843009942211,38,38,30
412438.81509427016,4265858.634149773,2168.8682085378096,97,89,66
412443.95778419275,4265863.3929648325,2172.4196189222857,63,23,11
412442.38271168957,4265863.315589388,2170.227512962185,172,178,178
412442.39846046414,4265863.308428373,2170.254529785365,164,166,165
412446.5988606422,4265863.281234518,2169.9911103844643,23,19,16
412442.439768161,4265863.2836279925,2168.9796264711767,113,96,86
412441.85049180733,4265863.023907705,2168.9836357198656,171,164,154
412440.2109120259,4265859.548323769,2168.8811499457806,88,83,63
412440.1387386619,4265859.36944516,2168.8881752509624,36,32,23
412440.2127339152,4265859.242170267,2168.878522804007,102,97,78
412438.2547351753,4265859.045931209,2168.89798880741,148,141,115
412444.89441051666,4265863.589825171,2170.7355869067833,81,83,82
412442.28135612124,4265863.239685009,2168.894939863123,26,18,16
412440.2605215662,4265859.752789041,2168.9201196786016,51,53,39
412438.5278412554,4265859.375736463,2168.8941008206457,53,49,38
412438.9930375659,4265858.864711933,2168.8809679187834,29,28,23
412442.6902184691,4265860.867311544,2168.894575243816,69,62,43
412439.2309772158,4265859.670695516,2168.8738336693496,86,81,59
412446.6077338981,4265863.526682806,2170.7684751125053,35,27,25
412438.3611818133,4265860.802215147,2168.878897176124,153,145,142
412438.8303044995,4265860.319104026,2168.904372382909,42,42,34
412443.2754664141,4265861.566121951,2168.8297327850014,85,83,60
412446.0214824986,4265863.579495735,2170.503373671323,187,191,190
412441.33367832226,4265862.992340352,2169.2269599838182,61,41,30
412445.50577047945,4265863.442651443,2168.94343358092,133,111,98
412442.3315443834,4265863.208341789,2170.857589944266,182,187,183
412444.7060199526,4265863.066179701,2172.218633278273,74,51,43
412440.68750113976,4265863.192049561,2171.4199143927544,159,160,162
412446.5052706555,4265863.319069435,2171.0981308296323,15,9,11
412444.561151302,4265863.631269672,2170.8928284058347,56,70,73
412445.4600039942,4265863.528183887,2170.0361697375774,119,102,82
412443.403219258,4265863.392348163,2170.0086558507755,164,170,170
412443.8823563505,4265863.41519519,2169.92441879306,172,176,175
412444.9050274105,4265863.467673859,2169.446842229925,49,34,29
412442.52233078744,4265863.288207495,2169.197698397562,150,149,145
412440.6417236655,4265863.13563925,2169.313852665946,143,130,122
412442.8521067699,4265863.311488996,2169.0305744800717,43,34,29
412439.488000121,4265863.069243354,2169.3579485081136,55,44,38
412443.4415402676,4265863.2979574,2168.879945570603,115,96,81
412441.8105422828,4265862.9998681145,2169.005348487757,148,145,136
412440.94497939927,4265862.967347679,2168.8988008126616,123,119,118
412440.5247544846,4265863.171222453,2171.819464175962,167,171,174
412444.1493912314,4265863.403466001,2171.3336237417534,131,117,90
412446.4648826446,4265863.6097485265,2170.7235951218754,63,66,71
412446.63068353495,4265863.561392217,2169.8683267673478,12,12,12
412445.80277043296,4265863.542651888,2169.7172545539215,42,34,32
412441.2570401742,4265863.176647389,2169.6203082110733,134,117,101
412445.30086758564,4265863.495250229,2169.1900073699653,182,167,148
412443.73602437304,4265863.432673607,2169.1997865298763,135,113,99
412441.63671552826,4265862.985097568,2169.4190961094573,98,45,27
412442.8314777808,4265863.337127804,2169.2256383989006,131,124,118
412441.5456538516,4265863.004356476,2169.126363059506,106,51,31
412440.7770585547,4265863.023580832,2169.031356628053,14,13,18
412439.74334117956,4265863.059592217,2170.780048357323,180,185,188
412440.8687656336,4265863.008222438,2168.9304892411456,10,10,12
412446.3352748931,4265863.633854627,2170.8605790911242,166,175,174
412442.3764287785,4265863.279335381,2170.238875533454,152,158,158
412445.15707485046,4265862.366380648,2168.904076726176,100,89,85
412440.6599130925,4265862.530271556,2169.245131576434,154,133,114
412446.3027196075,4265863.42905344,2169.665091698058,23,17,17
412445.1606294106,4265863.513378457,2170.402112705633,70,81,83
412442.0586115805,4265863.034068949,2172.702817562036,22,17,14
412440.2643790924,4265862.874326115,2172.5561178633943,61,43,41
412441.373045077,4265863.334452516,2172.238000046462,172,176,179
412442.324784973,4265863.280663476,2172.2049584360793,177,178,180
412440.79239335086,4265863.2920082975,2171.909594588913,170,178,180
412445.3293277594,4265863.5115065,2171.231374488212,49,42,32
412445.49142230715,4265863.53000109,2171.1693266723305,226,235,234
412446.11377853184,4265863.617013859,2170.9625381426886,178,183,186
412440.19545411953,4265863.200283175,2170.74733179342,32,34,33
412445.3046600724,4265863.544706728,2170.129875747487,175,176,168
412441.11206600897,4265863.191305008,2170.109939759597,157,163,163
412446.68352323957,4265863.706836845,2169.9636446526274,116,118,117
412446.35881603055,4265863.60070211,2169.973103198223,194,199,195
412442.8604272282,4265863.3224825915,2169.910060983151,186,192,190
412445.6333161613,4265863.515442564,2169.6015741778538,50,39,33
412445.63020699547,4265863.50831173,2169.603624071926,47,34,28
412445.4895153641,4265863.508036715,2169.591360848397,51,36,29
412444.3063841711,4265865.099888855,2169.4522194117308,125,112,96
412445.38405294286,4265863.504314927,2169.568926502019,69,52,44
412441.35773255315,4265863.129538352,2169.7454377692193,177,164,148
412445.5919418783,4265863.538993601,2169.5619980040938,150,139,133
412445.5790442344,4265863.516974422,2169.5597866456956,172,167,163
412442.8074034313,4265863.287257636,2169.658039731905,145,126,111
412445.6860234288,4265863.547363813,2169.4739472633228,67,50,40
412445.6722862305,4265863.5266812015,2169.468522844836,114,95,88
412442.2284040793,4265863.250513304,2169.633122542873,89,79,70
412443.8500288145,4265863.382607267,2169.5582478558645,34,28,28
412445.4998722662,4265863.535197112,2169.4395878156647,133,115,101
412446.4998786296,4265863.6097979965,2169.3964059008285,26,20,22
412444.9021667737,4265863.463727576,2169.4433110449463,64,50,41
412443.1168677311,4265863.327719258,2169.5020736940205,150,136,123
412445.102283244,4265863.530023688,2169.3847351185977,82,60,49
412443.18986185646,4265863.316228217,2169.4877552613616,48,43,39
412445.57643839123,4265863.520629167,2169.333257592283,71,57,48
412441.6111644356,4265862.999274702,2169.5640395386145,136,126,114
412444.9875184303,4265863.523697381,2169.324445339851,101,86,79
412441.00975803245,4265863.183916955,2169.5376703040674,109,95,84
412442.105265982,4265863.22275042,2169.4822137560695,136,117,100
412443.6855306831,4265863.369753082,2169.381057323888,59,50,45
412441.59745825495,4265862.977889957,2169.507303144783,146,140,128
412442.89465801505,4265863.301147228,2169.403051619418,158,145,137
412439.827858317,4265863.032696051,2169.575740164146,125,128,119
412441.83261543716,4265862.993906923,2169.4520465824753,150,129,110
412442.83297003753,4265863.289852064,2169.3582840468735,134,118,105
